# .PCD v0.7 - Point Cloud Data file format
VERSION 0.7
FIELDS x y z
SIZE 4 4 4
TYPE F F F
COUNT 1 1 1
WIDTH 2295
HEIGHT 1
VIEWPOINT 0 0 0 1 0 0 0
POINTS 2295
DATA ascii
126.45 206.72 491.08
126.89 206.72 491.20
127.32 206.72 491.28
127.76 206.72 491.28
128.19 206.72 491.36
128.63 206.72 491.36
129.06 206.72 491.32
129.50 206.72 491.32
129.94 206.72 491.20
130.37 206.72 491.20
130.81 206.72 491.24
131.24 206.72 491.24
131.68 206.72 491.16
132.11 206.72 491.48
132.55 206.72 491.48
132.98 206.72 491.40
133.42 206.72 491.60
133.86 206.72 491.60
134.29 206.72 491.60
134.73 206.72 491.44
135.16 206.72 491.44
135.60 206.72 491.20
136.03 206.72 491.12
136.47 206.72 491.04
136.91 206.72 490.88
137.34 206.72 490.72
92.91 207.04 482.96
93.34 207.04 486.44
93.78 207.04 487.20
94.21 207.04 488.20
94.65 207.04 488.84
95.08 207.04 488.84
95.52 207.04 489.28
95.96 207.04 489.68
96.39 207.04 489.88
96.83 207.04 489.96
97.26 207.04 490.04
97.70 207.04 490.04
98.13 207.04 490.12
98.57 207.04 490.12
99.01 207.04 490.04
99.44 207.04 490.04
99.88 207.04 490.04
100.31 207.04 490.32
100.75 207.04 490.32
101.18 207.04 490.32
101.62 207.04 490.56
102.05 207.04 490.56
102.49 207.04 490.08
102.93 207.04 490.08
103.36 207.04 490.08
103.80 207.04 490.00
104.23 207.04 490.08
104.67 207.04 490.08
105.10 207.04 490.08
105.54 207.04 490.12
105.98 207.04 490.20
106.41 207.04 490.28
106.85 207.04 490.28
107.28 207.04 490.12
107.72 207.04 490.28
108.15 207.04 490.28
108.59 207.04 490.28
109.02 207.04 490.44
109.46 207.04 490.44
109.90 207.04 490.44
110.33 207.04 490.48
110.77 207.04 490.48
111.20 207.04 490.56
111.64 207.04 490.56
112.07 207.04 490.64
112.51 207.04 490.72
112.95 207.04 490.92
113.38 207.04 491.00
113.82 207.04 491.00
114.25 207.04 490.68
114.69 207.04 490.68
115.12 207.04 490.76
115.56 207.04 490.76
116.00 207.04 490.84
116.43 207.04 490.84
116.87 207.04 490.92
117.30 207.04 491.12
117.74 207.04 491.12
118.17 207.04 490.92
118.61 207.04 491.04
119.04 207.04 491.04
119.48 207.04 491.12
119.92 207.04 491.12
120.35 207.04 490.88
120.79 207.04 491.16
121.22 207.04 491.16
121.66 207.04 491.16
122.09 207.04 491.16
122.53 207.04 491.00
122.97 207.04 491.00
123.40 207.04 491.16
123.84 207.04 491.16
124.27 207.04 491.08
124.71 207.04 491.32
125.14 207.04 491.32
125.58 207.04 491.36
126.01 207.04 491.36
126.45 207.04 491.00
126.89 207.04 491.36
127.32 207.04 491.36
127.76 207.04 491.28
128.19 207.04 491.44
128.63 207.04 491.44
129.06 207.04 491.36
129.50 207.04 491.28
129.94 207.04 491.28
130.37 207.04 491.24
130.81 207.04 491.24
131.24 207.04 491.16
131.68 207.04 491.32
132.11 207.04 491.32
132.55 207.04 491.24
132.98 207.04 491.24
133.42 207.04 491.60
133.86 207.04 491.60
134.29 207.04 491.52
134.73 207.04 491.52
135.16 207.04 491.44
135.60 207.04 491.28
136.03 207.04 491.28
136.47 207.04 490.96
136.91 207.04 490.96
137.34 207.04 490.52
137.78 207.04 490.52
93.34 207.36 486.36
93.78 207.36 487.28
94.21 207.36 488.20
94.65 207.36 488.52
95.08 207.36 488.68
95.52 207.36 489.12
95.96 207.36 489.72
96.39 207.36 489.96
96.83 207.36 490.12
97.26 207.36 490.12
97.70 207.36 490.04
98.13 207.36 490.12
98.57 207.36 490.20
99.01 207.36 490.20
99.44 207.36 490.32
99.88 207.36 490.32
100.31 207.36 490.04
100.75 207.36 490.16
101.18 207.36 490.16
101.62 207.36 490.24
102.05 207.36 490.24
102.49 207.36 490.40
102.93 207.36 490.40
103.36 207.36 490.32
103.80 207.36 490.32
104.23 207.36 490.24
104.67 207.36 490.16
105.10 207.36 490.44
105.54 207.36 490.44
105.98 207.36 490.28
106.41 207.36 490.28
106.85 207.36 490.28
107.28 207.36 490.20
107.72 207.36 490.20
108.15 207.36 490.20
108.59 207.36 490.36
109.02 207.36 490.36
109.46 207.36 490.52
109.90 207.36 490.56
110.33 207.36 490.56
110.77 207.36 490.48
111.20 207.36 490.48
111.64 207.36 490.56
112.07 207.36 490.64
112.51 207.36 490.64
112.95 207.36 490.64
113.38 207.36 490.80
113.82 207.36 490.80
114.25 207.36 490.64
114.69 207.36 490.68
115.12 207.36 490.68
115.56 207.36 490.60
116.00 207.36 490.68
116.43 207.36 490.92
116.87 207.36 490.92
117.30 207.36 490.84
117.74 207.36 491.04
118.17 207.36 491.04
118.61 207.36 490.88
119.04 207.36 490.88
119.48 207.36 490.88
119.92 207.36 491.04
120.35 207.36 491.24
120.79 207.36 491.24
121.22 207.36 491.08
121.66 207.36 491.08
122.09 207.36 491.08
122.53 207.36 491.08
122.97 207.36 491.24
123.40 207.36 491.24
123.84 207.36 490.92
124.27 207.36 490.92
124.71 207.36 491.16
125.14 207.36 491.16
125.58 207.36 491.00
126.01 207.36 491.08
126.45 207.36 491.36
126.89 207.36 491.36
127.32 207.36 491.20
127.76 207.36 491.20
128.19 207.36 491.28
128.63 207.36 491.28
129.06 207.36 491.40
129.50 207.36 491.40
129.94 207.36 491.32
130.37 207.36 491.72
130.81 207.36 491.72
131.24 207.36 491.48
131.68 207.36 491.16
132.11 207.36 491.24
132.55 207.36 491.24
132.98 207.36 491.32
133.42 207.36 491.60
133.86 207.36 491.60
134.29 207.36 491.52
134.73 207.36 491.52
135.16 207.36 491.36
135.60 207.36 491.44
136.03 207.36 491.44
136.47 207.36 490.88
136.91 207.36 490.72
137.34 207.36 490.72
92.91 207.68 485.76
93.34 207.68 487.12
93.78 207.68 487.12
94.21 207.68 487.68
94.65 207.68 488.52
95.08 207.68 488.80
95.52 207.68 489.28
95.96 207.68 489.60
96.39 207.68 489.72
96.83 207.68 490.12
97.26 207.68 490.12
97.70 207.68 490.12
98.13 207.68 490.12
98.57 207.68 490.12
99.01 207.68 489.88
99.44 207.68 490.16
99.88 207.68 490.16
100.31 207.68 490.16
100.75 207.68 490.16
101.18 207.68 490.16
101.62 207.68 490.16
102.05 207.68 490.16
102.49 207.68 490.24
102.93 207.68 490.24
103.36 207.68 490.16
103.80 207.68 490.36
104.23 207.68 490.36
104.67 207.68 490.24
105.10 207.68 490.16
105.54 207.68 490.20
105.98 207.68 490.20
106.41 207.68 490.20
106.85 207.68 490.12
107.28 207.68 490.28
107.72 207.68 490.28
108.15 207.68 490.28
108.59 207.68 490.20
109.02 207.68 490.44
109.46 207.68 490.52
109.90 207.68 490.52
110.33 207.68 490.56
110.77 207.68 490.64
111.20 207.68 490.64
111.64 207.68 490.64
112.07 207.68 490.80
112.51 207.68 490.80
112.95 207.68 490.80
113.38 207.68 490.84
113.82 207.68 490.84
114.25 207.68 490.76
114.69 207.68 490.76
115.12 207.68 490.76
115.56 207.68 490.60
116.00 207.68 490.68
116.43 207.68 490.68
116.87 207.68 490.68
117.30 207.68 490.68
117.74 207.68 490.92
118.17 207.68 491.04
118.61 207.68 491.04
119.04 207.68 491.12
119.48 207.68 491.12
119.92 207.68 491.04
120.35 207.68 491.04
120.79 207.68 491.16
121.22 207.68 491.16
121.66 207.68 491.16
122.09 207.68 491.08
122.53 207.68 491.24
122.97 207.68 491.24
123.40 207.68 491.24
123.84 207.68 491.32
124.27 207.68 491.32
124.71 207.68 491.00
125.14 207.68 491.16
125.58 207.68 491.16
126.01 207.68 491.08
126.45 207.68 491.12
126.89 207.68 491.20
127.32 207.68 491.20
127.76 207.68 491.20
128.19 207.68 491.20
128.63 207.68 491.20
129.06 207.68 491.32
129.50 207.68 491.32
129.94 207.68 491.28
130.37 207.68 491.24
130.81 207.68 491.24
131.24 207.68 491.16
131.68 207.68 491.16
132.11 207.68 491.40
132.55 207.68 491.40
132.98 207.68 491.52
133.42 207.68 491.52
133.86 207.68 491.52
134.29 207.68 491.60
134.73 207.68 491.60
135.16 207.68 491.52
135.60 207.68 491.44
136.03 207.68 491.44
136.47 207.68 490.96
136.91 207.68 490.96
137.34 207.68 490.96
93.34 208.00 486.44
93.78 208.00 487.28
94.21 208.00 487.76
94.65 208.00 488.60
95.08 208.00 488.68
95.52 208.00 488.96
95.96 208.00 489.52
96.39 208.00 489.72
96.83 208.00 490.12
97.26 208.00 490.12
97.70 208.00 490.12
98.13 208.00 490.20
98.57 208.00 490.20
99.01 208.00 489.80
99.44 208.00 490.16
99.88 208.00 490.32
100.31 208.00 490.32
100.75 208.00 490.16
101.18 208.00 490.16
101.62 208.00 490.08
102.05 208.00 489.92
102.49 208.00 490.40
102.93 208.00 490.40
103.36 208.00 490.16
103.80 208.00 490.16
104.23 208.00 490.16
104.67 208.00 490.00
105.10 208.00 490.16
105.54 208.00 490.16
105.98 208.00 490.04
106.41 208.00 490.20
106.85 208.00 490.20
107.28 208.00 490.28
107.72 208.00 490.28
108.15 208.00 490.36
108.59 208.00 490.36
109.02 208.00 490.52
109.46 208.00 490.52
109.90 208.00 490.52
110.33 208.00 490.40
110.77 208.00 490.48
111.20 208.00 490.56
111.64 208.00 490.56
112.07 208.00 490.56
112.51 208.00 490.80
112.95 208.00 490.80
113.38 208.00 490.80
113.82 208.00 490.80
114.25 208.00 490.84
114.69 208.00 490.84
115.12 208.00 490.76
115.56 208.00 490.84
116.00 208.00 490.92
116.43 208.00 490.92
116.87 208.00 491.00
117.30 208.00 491.12
117.74 208.00 491.12
118.17 208.00 490.96
118.61 208.00 490.96
119.04 208.00 491.20
119.48 208.00 491.20
119.92 208.00 490.88
120.35 208.00 491.12
120.79 208.00 491.12
121.22 208.00 491.16
121.66 208.00 491.16
122.09 208.00 491.24
122.53 208.00 491.24
122.97 208.00 491.24
123.40 208.00 491.08
123.84 208.00 491.16
124.27 208.00 491.16
124.71 208.00 490.92
125.14 208.00 491.16
125.58 208.00 491.16
126.01 208.00 491.16
126.45 208.00 491.12
126.89 208.00 491.36
127.32 208.00 491.36
127.76 208.00 491.28
128.19 208.00 491.28
128.63 208.00 491.28
129.06 208.00 491.40
129.50 208.00 491.48
129.94 208.00 491.48
130.37 208.00 491.24
130.81 208.00 491.24
131.24 208.00 491.40
131.68 208.00 491.40
132.11 208.00 491.32
132.55 208.00 491.40
132.98 208.00 491.40
133.42 208.00 491.40
133.86 208.00 491.52
134.29 208.00 491.52
134.73 208.00 491.60
135.16 208.00 491.76
135.60 208.00 491.76
136.03 208.00 491.36
136.47 208.00 490.80
136.91 208.00 490.96
137.34 208.00 490.96
93.34 208.32 486.52
93.78 208.32 487.12
94.21 208.32 488.44
94.65 208.32 488.52
95.08 208.32 488.88
95.52 208.32 489.20
95.96 208.32 489.52
96.39 208.32 489.60
96.83 208.32 490.20
97.26 208.32 490.20
97.70 208.32 490.12
98.13 208.32 490.20
98.57 208.32 490.20
99.01 208.32 490.04
99.44 208.32 490.04
99.88 208.32 489.96
100.31 208.32 490.04
100.75 208.32 490.24
101.18 208.32 490.24
101.62 208.32 490.00
102.05 208.32 490.16
102.49 208.32 490.16
102.93 208.32 490.16
103.36 208.32 490.16
103.80 208.32 490.08
104.23 208.32 490.08
104.67 208.32 490.16
105.10 208.32 490.16
105.54 208.32 490.20
105.98 208.32 490.20
106.41 208.32 490.20
106.85 208.32 490.36
107.28 208.32 490.36
107.72 208.32 490.20
108.15 208.32 490.36
108.59 208.32 490.52
109.02 208.32 490.64
109.46 208.32 490.64
109.90 208.32 490.52
110.33 208.32 490.48
110.77 208.32 490.56
111.20 208.32 490.56
111.64 208.32 490.72
112.07 208.32 490.80
112.51 208.32 490.80
112.95 208.32 490.72
113.38 208.32 490.72
113.82 208.32 490.64
114.25 208.32 490.68
114.69 208.32 490.68
115.12 208.32 490.68
115.56 208.32 490.68
116.00 208.32 490.68
116.43 208.32 490.76
116.87 208.32 490.92
117.30 208.32 490.92
117.74 208.32 490.92
118.17 208.32 491.20
118.61 208.32 491.20
119.04 208.32 491.12
119.48 208.32 490.88
119.92 208.32 491.04
120.35 208.32 491.04
120.79 208.32 491.08
121.22 208.32 491.16
121.66 208.32 491.16
122.09 208.32 491.08
122.53 208.32 491.08
122.97 208.32 490.92
123.40 208.32 491.16
123.84 208.32 491.16
124.27 208.32 491.00
124.71 208.32 491.08
125.14 208.32 491.52
125.58 208.32 491.52
126.01 208.32 491.08
126.45 208.32 491.20
126.89 208.32 491.20
127.32 208.32 491.28
127.76 208.32 491.28
128.19 208.32 491.20
128.63 208.32 491.36
129.06 208.32 491.36
129.50 208.32 491.20
129.94 208.32 491.20
130.37 208.32 491.20
130.81 208.32 491.20
131.24 208.32 491.40
131.68 208.32 491.48
132.11 208.32 491.48
132.55 208.32 491.40
132.98 208.32 491.40
133.42 208.32 491.44
133.86 208.32 491.44
134.29 208.32 491.44
134.73 208.32 491.36
135.16 208.32 491.44
135.60 208.32 491.44
136.03 208.32 491.36
136.47 208.32 490.80
136.91 208.32 490.68
137.34 208.32 490.68
137.78 208.32 490.52
93.34 208.64 486.84
93.78 208.64 487.36
94.21 208.64 488.28
94.65 208.64 488.76
95.08 208.64 488.80
95.52 208.64 489.04
95.96 208.64 489.28
96.39 208.64 489.68
96.83 208.64 490.12
97.26 208.64 490.12
97.70 208.64 490.04
98.13 208.64 490.12
98.57 208.64 490.12
99.01 208.64 489.80
99.44 208.64 490.04
99.88 208.64 490.04
100.31 208.64 490.04
100.75 208.64 490.04
101.18 208.64 490.16
101.62 208.64 490.16
102.05 208.64 490.08
102.49 208.64 490.08
102.93 208.64 490.24
103.36 208.64 490.24
103.80 208.64 490.08
104.23 208.64 490.08
104.67 208.64 490.08
105.10 208.64 490.16
105.54 208.64 490.20
105.98 208.64 490.20
106.41 208.64 490.20
106.85 208.64 490.20
107.28 208.64 490.12
107.72 208.64 490.04
108.15 208.64 490.12
108.59 208.64 490.20
109.02 208.64 490.44
109.46 208.64 490.52
109.90 208.64 490.52
110.33 208.64 490.48
110.77 208.64 490.72
111.20 208.64 490.80
111.64 208.64 490.80
112.07 208.64 490.64
112.51 208.64 490.88
112.95 208.64 490.88
113.38 208.64 490.72
113.82 208.64 490.92
114.25 208.64 490.92
114.69 208.64 490.84
115.12 208.64 490.84
115.56 208.64 490.84
116.00 208.64 490.76
116.43 208.64 490.76
116.87 208.64 490.84
117.30 208.64 490.84
117.74 208.64 490.84
118.17 208.64 490.96
118.61 208.64 490.96
119.04 208.64 490.88
119.48 208.64 491.04
119.92 208.64 491.04
120.35 208.64 491.20
120.79 208.64 491.20
121.22 208.64 491.04
121.66 208.64 491.04
122.09 208.64 490.88
122.53 208.64 490.92
122.97 208.64 491.24
123.40 208.64 491.32
123.84 208.64 491.32
124.27 208.64 491.24
124.71 208.64 491.16
125.14 208.64 491.16
125.58 208.64 491.08
126.01 208.64 491.28
126.45 208.64 491.28
126.89 208.64 491.12
127.32 208.64 491.28
127.76 208.64 491.28
128.19 208.64 491.20
128.63 208.64 491.28
129.06 208.64 491.28
129.50 208.64 491.28
129.94 208.64 491.28
130.37 208.64 491.24
130.81 208.64 491.24
131.24 208.64 491.24
131.68 208.64 491.24
132.11 208.64 491.32
132.55 208.64 491.32
132.98 208.64 491.44
133.42 208.64 491.44
133.86 208.64 491.40
134.29 208.64 491.36
134.73 208.64 491.36
135.16 208.64 491.36
135.60 208.64 491.64
136.03 208.64 491.64
136.47 208.64 491.04
136.91 208.64 490.80
137.34 208.64 490.52
137.78 208.64 490.52
92.91 208.96 482.72
93.34 208.96 486.96
93.78 208.96 487.36
94.21 208.96 487.76
94.65 208.96 488.60
95.08 208.96 488.96
95.52 208.96 489.12
95.96 208.96 489.52
96.39 208.96 489.68
96.83 208.96 490.04
97.26 208.96 490.04
97.70 208.96 490.12
98.13 208.96 490.12
98.57 208.96 490.12
99.01 208.96 490.04
99.44 208.96 490.04
99.88 208.96 490.04
100.31 208.96 490.08
100.75 208.96 490.08
101.18 208.96 489.92
101.62 208.96 489.80
102.05 208.96 490.08
102.49 208.96 490.08
102.93 208.96 490.00
103.36 208.96 490.00
103.80 208.96 490.16
104.23 208.96 490.16
104.67 208.96 490.16
105.10 208.96 490.08
105.54 208.96 490.12
105.98 208.96 490.12
106.41 208.96 490.36
106.85 208.96 490.36
107.28 208.96 490.36
107.72 208.96 490.36
108.15 208.96 490.52
108.59 208.96 490.52
109.02 208.96 490.44
109.46 208.96 490.56
109.90 208.96 490.56
110.33 208.96 490.64
110.77 208.96 490.64
111.20 208.96 490.64
111.64 208.96 490.56
112.07 208.96 490.56
112.51 208.96 490.64
112.95 208.96 490.72
113.38 208.96 490.80
113.82 208.96 490.80
114.25 208.96 490.80
114.69 208.96 490.76
115.12 208.96 490.68
115.56 208.96 490.68
116.00 208.96 490.68
116.43 208.96 490.84
116.87 208.96 490.84
117.30 208.96 490.84
117.74 208.96 490.76
118.17 208.96 490.96
118.61 208.96 490.96
119.04 208.96 490.96
119.48 208.96 490.96
119.92 208.96 491.12
120.35 208.96 491.16
120.79 208.96 491.24
121.22 208.96 491.24
121.66 208.96 491.16
122.09 208.96 491.16
122.53 208.96 491.16
122.97 208.96 491.08
123.40 208.96 491.08
123.84 208.96 490.92
124.27 208.96 491.16
124.71 208.96 491.24
125.14 208.96 491.24
125.58 208.96 491.16
126.01 208.96 491.08
126.45 208.96 491.08
126.89 208.96 491.28
127.32 208.96 491.28
127.76 208.96 491.20
128.19 208.96 491.20
128.63 208.96 491.28
129.06 208.96 491.28
129.50 208.96 491.20
129.94 208.96 491.20
130.37 208.96 491.20
130.81 208.96 491.20
131.24 208.96 491.16
131.68 208.96 491.40
132.11 208.96 491.40
132.55 208.96 491.40
132.98 208.96 491.44
133.42 208.96 491.44
133.86 208.96 491.44
134.29 208.96 491.44
134.73 208.96 491.36
135.16 208.96 491.36
135.60 208.96 491.36
136.03 208.96 491.20
136.47 208.96 490.96
136.91 208.96 490.96
137.34 208.96 490.96
93.34 209.28 486.92
93.78 209.28 487.20
94.21 209.28 487.68
94.65 209.28 488.84
95.08 209.28 488.96
95.52 209.28 489.04
95.96 209.28 489.36
96.39 209.28 489.72
96.83 209.28 489.96
97.26 209.28 489.96
97.70 209.28 489.88
98.13 209.28 490.04
98.57 209.28 490.12
99.01 209.28 490.12
99.44 209.28 490.16
99.88 209.28 490.16
100.31 209.28 490.04
100.75 209.28 490.08
101.18 209.28 490.08
101.62 209.28 490.00
102.05 209.28 490.00
102.49 209.28 490.00
102.93 209.28 490.40
103.36 209.28 490.40
103.80 209.28 490.08
104.23 209.28 490.08
104.67 209.28 490.08
105.10 209.28 490.08
105.54 209.28 490.12
105.98 209.28 490.12
106.41 209.28 490.12
106.85 209.28 490.12
107.28 209.28 490.20
107.72 209.28 490.28
108.15 209.28 490.28
108.59 209.28 490.36
109.02 209.28 490.52
109.46 209.28 490.56
109.90 209.28 490.56
110.33 209.28 490.56
110.77 209.28 490.64
111.20 209.28 490.64
111.64 209.28 490.72
112.07 209.28 490.72
112.51 209.28 490.72
112.95 209.28 490.72
113.38 209.28 490.64
113.82 209.28 490.64
114.25 209.28 490.68
114.69 209.28 490.76
115.12 209.28 490.76
115.56 209.28 490.68
116.00 209.28 490.68
116.43 209.28 490.68
116.87 209.28 490.60
117.30 209.28 490.76
117.74 209.28 490.76
118.17 209.28 490.96
118.61 209.28 490.96
119.04 209.28 490.88
119.48 209.28 490.96
119.92 209.28 491.04
120.35 209.28 491.12
120.79 209.28 491.16
121.22 209.28 491.16
121.66 209.28 491.16
122.09 209.28 491.16
122.53 209.28 491.16
122.97 209.28 491.16
123.40 209.28 491.24
123.84 209.28 491.24
124.27 209.28 491.08
124.71 209.28 491.24
125.14 209.28 491.44
125.58 209.28 491.44
126.01 209.28 491.36
126.45 209.28 491.36
126.89 209.28 491.36
127.32 209.28 491.12
127.76 209.28 491.20
128.19 209.28 491.44
128.63 209.28 491.44
129.06 209.28 491.36
129.50 209.28 491.32
129.94 209.28 491.32
130.37 209.28 491.24
130.81 209.28 491.24
131.24 209.28 491.24
131.68 209.28 491.24
132.11 209.28 491.32
132.55 209.28 491.68
132.98 209.28 491.68
133.42 209.28 491.40
133.86 209.28 491.52
134.29 209.28 491.52
134.73 209.28 491.44
135.16 209.28 491.28
135.60 209.28 491.44
136.03 209.28 491.44
136.47 209.28 491.04
136.91 209.28 490.60
137.34 209.28 490.60
137.78 209.28 490.52
93.34 209.60 487.04
93.78 209.60 487.28
94.21 209.60 488.20
94.65 209.60 488.68
95.08 209.60 488.76
95.52 209.60 489.12
95.96 209.60 489.28
96.39 209.60 489.72
96.83 209.60 489.96
97.26 209.60 489.96
97.70 209.60 489.96
98.13 209.60 489.96
98.57 209.60 489.96
99.01 209.60 489.88
99.44 209.60 490.04
99.88 209.60 490.04
100.31 209.60 490.04
100.75 209.60 489.84
101.18 209.60 490.08
101.62 209.60 490.08
102.05 209.60 489.92
102.49 209.60 490.08
102.93 209.60 490.24
103.36 209.60 490.24
103.80 209.60 490.08
104.23 209.60 490.08
104.67 209.60 490.16
105.10 209.60 490.24
105.54 209.60 490.24
105.98 209.60 490.12
106.41 209.60 490.20
106.85 209.60 490.36
107.28 209.60 490.44
107.72 209.60 490.44
108.15 209.60 490.36
108.59 209.60 490.64
109.02 209.60 490.64
109.46 209.60 490.52
109.90 209.60 490.52
110.33 209.60 490.56
110.77 209.60 490.56
111.20 209.60 490.64
111.64 209.60 490.64
112.07 209.60 490.64
112.51 209.60 490.64
112.95 209.60 490.72
113.38 209.60 490.72
113.82 209.60 490.80
114.25 209.60 490.84
114.69 209.60 490.84
115.12 209.60 490.76
115.56 209.60 490.60
116.00 209.60 490.60
116.43 209.60 490.68
116.87 209.60 490.92
117.30 209.60 490.92
117.74 209.60 490.92
118.17 209.60 490.76
118.61 209.60 490.80
119.04 209.60 490.88
119.48 209.60 490.88
119.92 209.60 491.04
120.35 209.60 491.04
120.79 209.60 491.16
121.22 209.60 491.16
121.66 209.60 491.16
122.09 209.60 491.24
122.53 209.60 491.24
122.97 209.60 491.00
123.40 209.60 490.92
123.84 209.60 491.40
124.27 209.60 491.40
124.71 209.60 491.24
125.14 209.60 491.24
125.58 209.60 491.36
126.01 209.60 491.36
126.45 209.60 491.08
126.89 209.60 491.08
127.32 209.60 491.20
127.76 209.60 491.20
128.19 209.60 491.28
128.63 209.60 491.28
129.06 209.60 491.40
129.50 209.60 491.40
129.94 209.60 491.32
130.37 209.60 491.32
130.81 209.60 491.24
131.24 209.60 491.24
131.68 209.60 491.32
132.11 209.60 491.32
132.55 209.60 491.32
132.98 209.60 491.40
133.42 209.60 491.52
133.86 209.60 491.52
134.29 209.60 491.52
134.73 209.60 491.52
135.16 209.60 491.36
135.60 209.60 491.36
136.03 209.60 491.36
136.47 209.60 490.88
136.91 209.60 490.88
137.34 209.60 490.88
93.34 209.92 486.44
93.78 209.92 487.12
94.21 209.92 488.28
94.65 209.92 488.68
95.08 209.92 488.76
95.52 209.92 489.20
95.96 209.92 489.20
96.39 209.92 489.68
96.83 209.92 489.72
97.26 209.92 489.80
97.70 209.92 489.96
98.13 209.92 489.96
98.57 209.92 489.88
99.01 209.92 490.16
99.44 209.92 490.16
99.88 209.92 489.96
100.31 209.92 490.24
100.75 209.92 490.24
101.18 209.92 489.84
101.62 209.92 490.00
102.05 209.92 490.16
102.49 209.92 490.16
102.93 209.92 490.16
103.36 209.92 490.16
103.80 209.92 490.36
104.23 209.92 490.36
104.67 209.92 490.32
105.10 209.92 490.16
105.54 209.92 490.16
105.98 209.92 490.12
106.41 209.92 490.12
106.85 209.92 490.12
107.28 209.92 490.12
107.72 209.92 490.12
108.15 209.92 490.12
108.59 209.92 490.28
109.02 209.92 490.52
109.46 209.92 490.64
109.90 209.92 490.64
110.33 209.92 490.48
110.77 209.92 490.48
111.20 209.92 490.48
111.64 209.92 490.56
112.07 209.92 490.56
112.51 209.92 490.56
112.95 209.92 490.72
113.38 209.92 490.80
113.82 209.92 490.80
114.25 209.92 490.80
114.69 209.92 490.60
115.12 209.92 490.60
115.56 209.92 490.60
116.00 209.92 490.68
116.43 209.92 490.68
116.87 209.92 490.60
117.30 209.92 490.60
117.74 209.92 490.68
118.17 209.92 490.76
118.61 209.92 490.88
119.04 209.92 490.96
119.48 209.92 491.12
119.92 209.92 491.12
120.35 209.92 491.32
120.79 209.92 491.32
121.22 209.92 491.24
121.66 209.92 491.24
122.09 209.92 491.32
122.53 209.92 491.32
122.97 209.92 491.24
123.40 209.92 491.16
123.84 209.92 491.00
124.27 209.92 491.00
124.71 209.92 491.48
125.14 209.92 491.48
125.58 209.92 491.16
126.01 209.92 491.16
126.45 209.92 491.28
126.89 209.92 491.28
127.32 209.92 491.20
127.76 209.92 491.36
128.19 209.92 491.52
128.63 209.92 491.52
129.06 209.92 491.36
129.50 209.92 491.28
129.94 209.92 491.24
130.37 209.92 491.24
130.81 209.92 491.24
131.24 209.92 491.16
131.68 209.92 491.24
132.11 209.92 491.40
132.55 209.92 491.40
132.98 209.92 491.68
133.42 209.92 491.68
133.86 209.92 491.60
134.29 209.92 491.52
134.73 209.92 491.52
135.16 209.92 491.44
135.60 209.92 491.44
136.03 209.92 491.28
136.47 209.92 490.80
136.91 209.92 490.60
137.34 209.92 490.60
137.78 209.92 490.44
92.91 210.24 483.88
93.34 210.24 487.04
93.78 210.24 487.36
94.21 210.24 487.60
94.65 210.24 488.60
95.08 210.24 489.12
95.52 210.24 489.12
95.96 210.24 489.52
96.39 210.24 489.72
96.83 210.24 489.80
97.26 210.24 489.96
97.70 210.24 489.96
98.13 210.24 489.96
98.57 210.24 490.04
99.01 210.24 490.04
99.44 210.24 490.04
99.88 210.24 490.04
100.31 210.24 490.08
100.75 210.24 490.08
101.18 210.24 490.16
101.62 210.24 490.24
102.05 210.24 490.24
102.49 210.24 489.92
102.93 210.24 490.16
103.36 210.24 490.16
103.80 210.24 490.08
104.23 210.24 490.08
104.67 210.24 490.00
105.10 210.24 490.08
105.54 210.24 490.12
105.98 210.24 490.12
106.41 210.24 490.12
106.85 210.24 490.12
107.28 210.24 490.12
107.72 210.24 490.20
108.15 210.24 490.20
108.59 210.24 490.28
109.02 210.24 490.52
109.46 210.24 490.56
109.90 210.24 490.64
110.33 210.24 490.64
110.77 210.24 490.48
111.20 210.24 490.48
111.64 210.24 490.56
112.07 210.24 490.72
112.51 210.24 490.72
112.95 210.24 490.64
113.38 210.24 490.56
113.82 210.24 490.84
114.25 210.24 491.00
114.69 210.24 491.00
115.12 210.24 490.76
115.56 210.24 490.68
116.00 210.24 490.76
116.43 210.24 490.92
116.87 210.24 490.92
117.30 210.24 490.92
117.74 210.24 491.04
118.17 210.24 491.04
118.61 210.24 490.92
119.04 210.24 490.88
119.48 210.24 490.88
119.92 210.24 490.88
120.35 210.24 490.88
120.79 210.24 491.12
121.22 210.24 491.16
121.66 210.24 491.16
122.09 210.24 491.08
122.53 210.24 491.08
122.97 210.24 491.08
123.40 210.24 491.16
123.84 210.24 491.16
124.27 210.24 491.00
124.71 210.24 491.48
125.14 210.24 491.48
125.58 210.24 491.08
126.01 210.24 491.08
126.45 210.24 491.12
126.89 210.24 491.36
127.32 210.24 491.36
127.76 210.24 491.52
128.19 210.24 491.52
128.63 210.24 491.36
129.06 210.24 491.32
129.50 210.24 491.32
129.94 210.24 491.20
130.37 210.24 491.20
130.81 210.24 491.12
131.24 210.24 491.32
131.68 210.24 491.32
132.11 210.24 491.40
132.55 210.24 491.48
132.98 210.24 491.48
133.42 210.24 491.44
133.86 210.24 491.68
134.29 210.24 491.68
134.73 210.24 491.68
135.16 210.24 491.60
135.60 210.24 491.60
136.03 210.24 491.28
136.47 210.24 490.96
136.91 210.24 490.80
137.34 210.24 490.80
92.91 210.56 485.88
93.34 210.56 486.76
93.78 210.56 487.36
94.21 210.56 488.28
94.65 210.56 488.76
95.08 210.56 488.88
95.52 210.56 489.12
95.96 210.56 489.52
96.39 210.56 489.60
96.83 210.56 489.60
97.26 210.56 490.04
97.70 210.56 490.12
98.13 210.56 490.12
98.57 210.56 489.80
99.01 210.56 490.04
99.44 210.56 490.04
99.88 210.56 489.80
100.31 210.56 490.08
100.75 210.56 490.16
101.18 210.56 490.16
101.62 210.56 489.92
102.05 210.56 490.08
102.49 210.56 490.08
102.93 210.56 490.00
103.36 210.56 490.00
103.80 210.56 490.00
104.23 210.56 490.00
104.67 210.56 490.00
105.10 210.56 490.24
105.54 210.56 490.24
105.98 210.56 490.20
106.41 210.56 490.20
106.85 210.56 490.20
107.28 210.56 490.36
107.72 210.56 490.36
108.15 210.56 490.28
108.59 210.56 490.52
109.02 210.56 490.52
109.46 210.56 490.64
109.90 210.56 490.64
110.33 210.56 490.48
110.77 210.56 490.40
111.20 210.56 490.40
111.64 210.56 490.56
112.07 210.56 490.64
112.51 210.56 490.64
112.95 210.56 490.64
113.38 210.56 490.64
113.82 210.56 490.84
114.25 210.56 490.84
114.69 210.56 490.84
115.12 210.56 490.76
115.56 210.56 490.68
116.00 210.56 490.76
116.43 210.56 490.84
116.87 210.56 490.84
117.30 210.56 490.92
117.74 210.56 490.92
118.17 210.56 491.04
118.61 210.56 491.12
119.04 210.56 491.12
119.48 210.56 491.04
119.92 210.56 491.04
120.35 210.56 491.20
120.79 210.56 491.20
121.22 210.56 491.24
121.66 210.56 491.24
122.09 210.56 491.16
122.53 210.56 491.16
122.97 210.56 491.08
123.40 210.56 491.00
123.84 210.56 491.00
124.27 210.56 491.00
124.71 210.56 491.08
125.14 210.56 491.68
125.58 210.56 491.68
126.01 210.56 491.60
126.45 210.56 491.12
126.89 210.56 491.12
127.32 210.56 491.20
127.76 210.56 491.20
128.19 210.56 491.12
128.63 210.56 491.12
129.06 210.56 491.32
129.50 210.56 491.32
129.94 210.56 491.28
130.37 210.56 491.20
130.81 210.56 491.40
131.24 210.56 491.40
131.68 210.56 491.32
132.11 210.56 491.32
132.55 210.56 491.32
132.98 210.56 491.44
133.42 210.56 491.52
133.86 210.56 491.52
134.29 210.56 491.52
134.73 210.56 491.52
135.16 210.56 491.60
135.60 210.56 491.60
136.03 210.56 491.20
136.47 210.56 491.04
136.91 210.56 491.12
137.34 210.56 491.12
92.91 210.88 486.12
93.34 210.88 486.96
93.78 210.88 487.20
94.21 210.88 487.76
94.65 210.88 488.36
95.08 210.88 488.76
95.52 210.88 489.04
95.96 210.88 489.44
96.39 210.88 489.60
96.83 210.88 490.12
97.26 210.88 490.12
97.70 210.88 490.12
98.13 210.88 490.12
98.57 210.88 490.28
99.01 210.88 490.28
99.44 210.88 490.04
99.88 210.88 489.96
100.31 210.88 490.04
100.75 210.88 490.04
101.18 210.88 490.08
101.62 210.88 490.08
102.05 210.88 490.00
102.49 210.88 490.00
102.93 210.88 490.24
103.36 210.88 490.24
103.80 210.88 490.16
104.23 210.88 490.16
104.67 210.88 490.16
105.10 210.88 490.16
105.54 210.88 490.16
105.98 210.88 490.12
106.41 210.88 490.20
106.85 210.88 490.28
107.28 210.88 490.28
107.72 210.88 490.20
108.15 210.88 490.28
108.59 210.88 490.60
109.02 210.88 490.60
109.46 210.88 490.56
109.90 210.88 490.48
110.33 210.88 490.56
110.77 210.88 490.56
111.20 210.88 490.48
111.64 210.88 490.48
112.07 210.88 490.44
112.51 210.88 490.64
112.95 210.88 490.64
113.38 210.88 490.64
113.82 210.88 490.84
114.25 210.88 491.00
114.69 210.88 491.00
115.12 210.88 490.76
115.56 210.88 490.76
116.00 210.88 490.68
116.43 210.88 490.76
116.87 210.88 490.84
117.30 210.88 490.92
117.74 210.88 490.92
118.17 210.88 490.92
118.61 210.88 490.92
119.04 210.88 490.88
119.48 210.88 490.80
119.92 210.88 490.88
120.35 210.88 491.20
120.79 210.88 491.20
121.22 210.88 491.16
121.66 210.88 491.04
122.09 210.88 490.96
122.53 210.88 491.08
122.97 210.88 491.24
123.40 210.88 491.24
123.84 210.88 491.16
124.27 210.88 491.24
124.71 210.88 491.24
125.14 210.88 491.36
125.58 210.88 491.36
126.01 210.88 491.20
126.45 210.88 491.20
126.89 210.88 491.20
127.32 210.88 491.20
127.76 210.88 491.20
128.19 210.88 491.36
128.63 210.88 491.36
129.06 210.88 491.40
129.50 210.88 491.40
129.94 210.88 491.28
130.37 210.88 491.24
130.81 210.88 491.32
131.24 210.88 491.64
131.68 210.88 491.64
132.11 210.88 491.48
132.55 210.88 491.60
132.98 210.88 491.60
133.42 210.88 491.40
133.86 210.88 491.52
134.29 210.88 491.52
134.73 210.88 491.52
135.16 210.88 491.68
135.60 210.88 491.68
136.03 210.88 491.44
136.47 210.88 490.88
136.91 210.88 490.88
137.34 210.88 490.72
93.34 211.20 486.96
93.78 211.20 487.36
94.21 211.20 488.28
94.65 211.20 488.76
95.08 211.20 489.04
95.52 211.20 489.12
95.96 211.20 489.72
96.39 211.20 489.80
96.83 211.20 490.12
97.26 211.20 490.28
97.70 211.20 490.28
98.13 211.20 490.12
98.57 211.20 490.12
99.01 211.20 490.04
99.44 211.20 490.08
99.88 211.20 490.08
100.31 211.20 489.88
100.75 211.20 489.92
101.18 211.20 490.08
101.62 211.20 490.08
102.05 211.20 490.00
102.49 211.20 490.00
102.93 211.20 490.00
103.36 211.20 490.00
103.80 211.20 490.00
104.23 211.20 490.08
104.67 211.20 490.08
105.10 211.20 490.08
105.54 211.20 490.12
105.98 211.20 490.12
106.41 211.20 490.12
106.85 211.20 490.20
107.28 211.20 490.28
107.72 211.20 490.28
108.15 211.20 490.20
108.59 211.20 490.36
109.02 211.20 490.56
109.46 211.20 490.64
109.90 211.20 490.64
110.33 211.20 490.48
110.77 211.20 490.56
111.20 211.20 490.56
111.64 211.20 490.64
112.07 211.20 490.80
112.51 211.20 490.80
112.95 211.20 490.80
113.38 211.20 490.80
113.82 211.20 490.92
114.25 211.20 490.92
114.69 211.20 490.84
115.12 211.20 490.84
115.56 211.20 490.60
116.00 211.20 490.76
116.43 211.20 490.76
116.87 211.20 490.68
117.30 211.20 490.92
117.74 211.20 490.92
118.17 211.20 490.92
118.61 211.20 490.92
119.04 211.20 490.96
119.48 211.20 490.96
119.92 211.20 490.96
120.35 211.20 491.04
120.79 211.20 491.04
121.22 211.20 491.24
121.66 211.20 491.24
122.09 211.20 491.24
122.53 211.20 491.00
122.97 211.20 491.24
123.40 211.20 491.24
123.84 211.20 491.16
124.27 211.20 491.16
124.71 211.20 491.00
125.14 211.20 491.24
125.58 211.20 491.24
126.01 211.20 491.08
126.45 211.20 491.12
126.89 211.20 491.12
127.32 211.20 491.20
127.76 211.20 491.28
128.19 211.20 491.28
128.63 211.20 491.52
129.06 211.20 491.52
129.50 211.20 491.20
129.94 211.20 491.20
130.37 211.20 491.24
130.81 211.20 491.24
131.24 211.20 491.40
131.68 211.20 491.40
132.11 211.20 491.48
132.55 211.20 491.48
132.98 211.20 491.48
133.42 211.20 491.40
133.86 211.20 491.52
134.29 211.20 491.52
134.73 211.20 491.36
135.16 211.20 491.68
135.60 211.20 491.68
136.03 211.20 491.04
136.47 211.20 490.88
136.91 211.20 491.12
137.34 211.20 491.12
92.91 211.52 485.96
93.34 211.52 486.52
93.78 211.52 487.36
94.21 211.52 487.60
94.65 211.52 488.76
95.08 211.52 488.80
95.52 211.52 489.28
95.96 211.52 489.80
96.39 211.52 489.88
96.83 211.52 489.96
97.26 211.52 490.20
97.70 211.52 490.20
98.13 211.52 490.04
98.57 211.52 490.04
99.01 211.52 490.16
99.44 211.52 490.16
99.88 211.52 490.04
100.31 211.52 490.04
100.75 211.52 490.16
101.18 211.52 490.16
101.62 211.52 490.00
102.05 211.52 490.00
102.49 211.52 490.00
102.93 211.52 490.16
103.36 211.52 490.16
103.80 211.52 490.24
104.23 211.52 490.24
104.67 211.52 490.08
105.10 211.52 490.08
105.54 211.52 490.08
105.98 211.52 490.12
106.41 211.52 490.12
106.85 211.52 490.28
107.28 211.52 490.28
107.72 211.52 490.20
108.15 211.52 490.20
108.59 211.52 490.60
109.02 211.52 490.60
109.46 211.52 490.56
109.90 211.52 490.64
110.33 211.52 490.64
110.77 211.52 490.56
111.20 211.52 490.48
111.64 211.52 490.64
112.07 211.52 490.64
112.51 211.52 490.72
112.95 211.52 490.72
113.38 211.52 490.80
113.82 211.52 490.80
114.25 211.52 490.80
114.69 211.52 490.76
115.12 211.52 490.84
115.56 211.52 490.84
116.00 211.52 490.76
116.43 211.52 490.76
116.87 211.52 490.68
117.30 211.52 490.84
117.74 211.52 490.84
118.17 211.52 491.04
118.61 211.52 491.04
119.04 211.52 491.04
119.48 211.52 490.96
119.92 211.52 491.12
120.35 211.52 491.16
120.79 211.52 491.32
121.22 211.52 491.32
121.66 211.52 491.16
122.09 211.52 491.32
122.53 211.52 491.32
122.97 211.52 491.16
123.40 211.52 491.00
123.84 211.52 491.08
124.27 211.52 491.44
124.71 211.52 491.44
125.14 211.52 491.08
125.58 211.52 491.00
126.01 211.52 491.08
126.45 211.52 491.12
126.89 211.52 491.12
127.32 211.52 491.12
127.76 211.52 491.12
128.19 211.52 491.36
128.63 211.52 491.36
129.06 211.52 491.40
129.50 211.52 491.40
129.94 211.52 491.40
130.37 211.52 491.32
130.81 211.52 491.40
131.24 211.52 491.40
131.68 211.52 491.32
132.11 211.52 491.24
132.55 211.52 491.40
132.98 211.52 491.52
133.42 211.52 491.52
133.86 211.52 491.52
134.29 211.52 491.52
134.73 211.52 491.52
135.16 211.52 491.36
135.60 211.52 491.36
136.03 211.52 491.28
136.47 211.52 490.80
136.91 211.52 490.80
137.34 211.52 490.80
92.91 211.84 485.88
93.34 211.84 487.12
93.78 211.84 487.20
94.21 211.84 488.28
94.65 211.84 488.76
95.08 211.84 489.20
95.52 211.84 489.20
95.96 211.84 489.52
96.39 211.84 489.72
96.83 211.84 490.04
97.26 211.84 490.12
97.70 211.84 490.12
98.13 211.84 490.04
98.57 211.84 490.12
99.01 211.84 490.12
99.44 211.84 490.16
99.88 211.84 490.16
100.31 211.84 490.04
100.75 211.84 490.08
101.18 211.84 490.08
101.62 211.84 489.92
102.05 211.84 490.00
102.49 211.84 490.00
102.93 211.84 490.24
103.36 211.84 490.24
103.80 211.84 490.08
104.23 211.84 490.08
104.67 211.84 489.92
105.10 211.84 490.24
105.54 211.84 490.24
105.98 211.84 490.20
106.41 211.84 490.28
106.85 211.84 490.28
107.28 211.84 490.28
107.72 211.84 490.44
108.15 211.84 490.44
108.59 211.84 490.36
109.02 211.84 490.64
109.46 211.84 490.64
109.90 211.84 490.52
110.33 211.84 490.40
110.77 211.84 490.64
111.20 211.84 490.64
111.64 211.84 490.80
112.07 211.84 490.80
112.51 211.84 490.80
112.95 211.84 490.72
113.38 211.84 490.84
113.82 211.84 490.84
114.25 211.84 490.84
114.69 211.84 490.76
115.12 211.84 490.76
115.56 211.84 490.68
116.00 211.84 490.52
116.43 211.84 490.68
116.87 211.84 490.84
117.30 211.84 491.04
117.74 211.84 491.04
118.17 211.84 491.04
118.61 211.84 490.88
119.04 211.84 491.04
119.48 211.84 491.20
119.92 211.84 491.20
120.35 211.84 491.04
120.79 211.84 491.16
121.22 211.84 491.16
121.66 211.84 491.04
122.09 211.84 491.00
122.53 211.84 491.00
122.97 211.84 491.16
123.40 211.84 491.24
123.84 211.84 491.24
124.27 211.84 491.08
124.71 211.84 491.24
125.14 211.84 491.24
125.58 211.84 491.08
126.01 211.84 491.00
126.45 211.84 491.12
126.89 211.84 491.36
127.32 211.84 491.36
127.76 211.84 491.36
128.19 211.84 491.36
128.63 211.84 491.36
129.06 211.84 491.40
129.50 211.84 491.40
129.94 211.84 491.40
130.37 211.84 491.56
130.81 211.84 491.56
131.24 211.84 491.32
131.68 211.84 491.24
132.11 211.84 491.24
132.55 211.84 491.52
132.98 211.84 491.52
133.42 211.84 491.52
133.86 211.84 491.52
134.29 211.84 491.52
134.73 211.84 491.44
135.16 211.84 491.76
135.60 211.84 491.76
136.03 211.84 491.20
136.47 211.84 490.80
136.91 211.84 490.96
137.34 211.84 490.96
92.91 212.16 485.84
93.34 212.16 487.12
93.78 212.16 487.12
94.21 212.16 487.76
94.65 212.16 488.36
95.08 212.16 488.96
95.52 212.16 489.12
95.96 212.16 489.52
96.39 212.16 489.72
96.83 212.16 489.96
97.26 212.16 490.12
97.70 212.16 490.12
98.13 212.16 490.04
98.57 212.16 490.04
99.01 212.16 490.16
99.44 212.16 490.16
99.88 212.16 490.04
100.31 212.16 490.16
100.75 212.16 490.32
101.18 212.16 490.32
101.62 212.16 490.32
102.05 212.16 490.16
102.49 212.16 490.16
102.93 212.16 490.08
103.36 212.16 490.16
103.80 212.16 490.16
104.23 212.16 490.24
104.67 212.16 490.24
105.10 212.16 490.24
105.54 212.16 490.24
105.98 212.16 490.20
106.41 212.16 490.36
106.85 212.16 490.44
107.28 212.16 490.44
107.72 212.16 490.20
108.15 212.16 490.20
108.59 212.16 490.20
109.02 212.16 490.52
109.46 212.16 490.52
109.90 212.16 490.56
110.33 212.16 490.64
110.77 212.16 490.64
111.20 212.16 490.56
111.64 212.16 490.64
112.07 212.16 490.80
112.51 212.16 490.80
112.95 212.16 490.72
113.38 212.16 490.84
113.82 212.16 490.84
114.25 212.16 490.84
114.69 212.16 490.92
115.12 212.16 490.92
115.56 212.16 490.68
116.00 212.16 490.84
116.43 212.16 490.92
116.87 212.16 490.92
117.30 212.16 490.92
117.74 212.16 490.92
118.17 212.16 490.92
118.61 212.16 491.04
119.04 212.16 491.04
119.48 212.16 491.12
119.92 212.16 491.12
120.35 212.16 491.04
120.79 212.16 491.04
121.22 212.16 491.16
121.66 212.16 491.16
122.09 212.16 490.96
122.53 212.16 491.16
122.97 212.16 491.16
123.40 212.16 491.16
123.84 212.16 491.16
124.27 212.16 491.08
124.71 212.16 491.32
125.14 212.16 491.32
125.58 212.16 491.16
126.01 212.16 491.20
126.45 212.16 491.20
126.89 212.16 491.20
127.32 212.16 491.20
127.76 212.16 491.36
128.19 212.16 491.36
128.63 212.16 491.28
129.06 212.16 491.32
129.50 212.16 491.32
129.94 212.16 491.32
130.37 212.16 491.32
130.81 212.16 491.24
131.24 212.16 491.32
131.68 212.16 491.32
132.11 212.16 491.48
132.55 212.16 491.48
132.98 212.16 491.48
133.42 212.16 491.32
133.86 212.16 491.52
134.29 212.16 491.52
134.73 212.16 491.52
135.16 212.16 491.36
135.60 212.16 491.28
136.03 212.16 491.28
136.47 212.16 491.04
136.91 212.16 490.72
137.34 212.16 490.60
92.91 212.48 483.88
93.34 212.48 486.52
93.78 212.48 487.12
94.21 212.48 488.20
94.65 212.48 488.84
95.08 212.48 488.84
95.52 212.48 489.04
95.96 212.48 489.28
96.39 212.48 489.44
96.83 212.48 489.96
97.26 212.48 490.12
97.70 212.48 490.12
98.13 212.48 489.96
98.57 212.48 489.96
99.01 212.48 489.88
99.44 212.48 490.08
99.88 212.48 490.08
100.31 212.48 490.08
100.75 212.48 490.08
101.18 212.48 489.80
101.62 212.48 489.92
102.05 212.48 489.92
102.49 212.48 490.24
102.93 212.48 490.24
103.36 212.48 490.16
103.80 212.48 490.16
104.23 212.48 490.16
104.67 212.48 490.24
105.10 212.48 490.32
105.54 212.48 490.32
105.98 212.48 490.36
106.41 212.48 490.36
106.85 212.48 490.36
107.28 212.48 490.20
107.72 212.48 490.60
108.15 212.48 490.60
108.59 212.48 490.44
109.02 212.48 490.64
109.46 212.48 490.64
109.90 212.48 490.64
110.33 212.48 490.40
110.77 212.48 490.40
111.20 212.48 490.64
111.64 212.48 490.64
112.07 212.48 490.80
112.51 212.48 490.80
112.95 212.48 490.92
113.38 212.48 490.92
113.82 212.48 490.84
114.25 212.48 490.84
114.69 212.48 490.84
115.12 212.48 490.76
115.56 212.48 490.76
116.00 212.48 490.76
116.43 212.48 490.76
116.87 212.48 490.84
117.30 212.48 490.84
117.74 212.48 490.84
118.17 212.48 490.92
118.61 212.48 490.92
119.04 212.48 490.96
119.48 212.48 491.12
119.92 212.48 491.20
120.35 212.48 491.20
120.79 212.48 491.16
121.22 212.48 491.24
121.66 212.48 491.24
122.09 212.48 491.00
122.53 212.48 491.24
122.97 212.48 491.24
123.40 212.48 491.08
123.84 212.48 491.00
124.27 212.48 491.24
124.71 212.48 491.24
125.14 212.48 491.00
125.58 212.48 491.00
126.01 212.48 491.08
126.45 212.48 491.28
126.89 212.48 491.28
127.32 212.48 491.36
127.76 212.48 491.36
128.19 212.48 491.44
128.63 212.48 491.44
129.06 212.48 491.44
129.50 212.48 491.40
129.94 212.48 491.28
130.37 212.48 491.24
130.81 212.48 491.32
131.24 212.48 491.32
131.68 212.48 491.32
132.11 212.48 491.40
132.55 212.48 491.48
132.98 212.48 491.48
133.42 212.48 491.76
133.86 212.48 491.76
134.29 212.48 491.60
134.73 212.48 491.44
135.16 212.48 491.60
135.60 212.48 491.60
136.03 212.48 491.44
136.47 212.48 491.04
136.91 212.48 490.88
137.34 212.48 490.72
93.34 212.80 486.84
93.78 212.80 487.20
94.21 212.80 488.28
94.65 212.80 488.44
95.08 212.80 488.76
95.52 212.80 489.12
95.96 212.80 489.44
96.39 212.80 489.60
96.83 212.80 489.96
97.26 212.80 490.12
97.70 212.80 490.12
98.13 212.80 489.96
98.57 212.80 489.88
99.01 212.80 490.04
99.44 212.80 490.04
99.88 212.80 490.08
100.31 212.80 490.08
100.75 212.80 489.92
101.18 212.80 490.24
101.62 212.80 490.24
102.05 212.80 490.00
102.49 212.80 489.92
102.93 212.80 490.08
103.36 212.80 490.16
103.80 212.80 490.16
104.23 212.80 490.08
104.67 212.80 490.16
105.10 212.80 490.16
105.54 212.80 490.12
105.98 212.80 490.20
106.41 212.80 490.20
106.85 212.80 490.28
107.28 212.80 490.52
107.72 212.80 490.52
108.15 212.80 490.52
108.59 212.80 490.52
109.02 212.80 490.44
109.46 212.80 490.44
109.90 212.80 490.44
110.33 212.80 490.36
110.77 212.80 490.48
111.20 212.80 490.64
111.64 212.80 490.64
112.07 212.80 490.64
112.51 212.80 490.64
112.95 212.80 490.64
113.38 212.80 490.92
113.82 212.80 490.92
114.25 212.80 490.84
114.69 212.80 490.84
115.12 212.80 490.68
115.56 212.80 490.68
116.00 212.80 490.60
116.43 212.80 490.76
116.87 212.80 490.92
117.30 212.80 490.92
117.74 212.80 491.04
118.17 212.80 491.04
118.61 212.80 490.80
119.04 212.80 490.96
119.48 212.80 491.04
119.92 212.80 491.04
120.35 212.80 491.16
120.79 212.80 491.16
121.22 212.80 491.16
121.66 212.80 491.40
122.09 212.80 491.40
122.53 212.80 491.32
122.97 212.80 491.16
123.40 212.80 491.16
123.84 212.80 491.16
124.27 212.80 491.16
124.71 212.80 491.08
125.14 212.80 491.08
125.58 212.80 491.08
126.01 212.80 491.08
126.45 212.80 491.20
126.89 212.80 491.20
127.32 212.80 491.20
127.76 212.80 491.28
128.19 212.80 491.28
128.63 212.80 491.20
129.06 212.80 491.28
129.50 212.80 491.28
129.94 212.80 491.20
130.37 212.80 491.24
130.81 212.80 491.24
131.24 212.80 491.16
131.68 212.80 491.32
132.11 212.80 491.40
132.55 212.80 491.40
132.98 212.80 491.68
133.42 212.80 491.68
133.86 212.80 491.68
134.29 212.80 491.52
134.73 212.80 491.52
135.16 212.80 491.68
135.60 212.80 491.68
136.03 212.80 491.28
136.47 212.80 491.04
136.91 212.80 490.72
137.34 212.80 490.72
93.34 213.12 486.92
93.78 213.12 487.36
94.21 213.12 488.28
94.65 213.12 488.60
95.08 213.12 488.88
95.52 213.12 489.04
95.96 213.12 489.44
96.39 213.12 489.60
96.83 213.12 489.96
97.26 213.12 490.12
97.70 213.12 490.12
98.13 213.12 490.04
98.57 213.12 490.04
99.01 213.12 489.88
99.44 213.12 490.04
99.88 213.12 490.04
100.31 213.12 490.04
100.75 213.12 489.84
101.18 213.12 489.84
101.62 213.12 489.80
102.05 213.12 490.00
102.49 213.12 490.48
102.93 213.12 490.48
103.36 213.12 490.08
103.80 213.12 490.08
104.23 213.12 490.00
104.67 213.12 490.00
105.10 213.12 490.16
105.54 213.12 490.16
105.98 213.12 490.20
106.41 213.12 490.20
106.85 213.12 490.28
107.28 213.12 490.28
107.72 213.12 490.28
108.15 213.12 490.28
108.59 213.12 490.52
109.02 213.12 490.56
109.46 213.12 490.56
109.90 213.12 490.40
110.33 213.12 490.40
110.77 213.12 490.56
111.20 213.12 490.56
111.64 213.12 490.72
112.07 213.12 490.72
112.51 213.12 490.64
112.95 213.12 490.64
113.38 213.12 490.64
113.82 213.12 490.72
114.25 213.12 490.76
114.69 213.12 490.76
115.12 213.12 490.76
115.56 213.12 490.68
116.00 213.12 490.68
116.43 213.12 490.68
116.87 213.12 490.76
117.30 213.12 490.84
117.74 213.12 490.84
118.17 213.12 490.84
118.61 213.12 490.84
119.04 213.12 490.88
119.48 213.12 491.04
119.92 213.12 491.04
120.35 213.12 491.12
120.79 213.12 491.16
121.22 213.12 491.16
121.66 213.12 491.08
122.09 213.12 491.08
122.53 213.12 491.08
122.97 213.12 491.00
123.40 213.12 491.24
123.84 213.12 491.24
124.27 213.12 491.32
124.71 213.12 491.32
125.14 213.12 491.24
125.58 213.12 491.16
126.01 213.12 491.16
126.45 213.12 491.12
126.89 213.12 491.36
127.32 213.12 491.36
127.76 213.12 491.36
128.19 213.12 491.36
128.63 213.12 491.28
129.06 213.12 491.32
129.50 213.12 491.32
129.94 213.12 491.32
130.37 213.12 491.32
130.81 213.12 491.24
131.24 213.12 491.24
131.68 213.12 491.24
132.11 213.12 491.48
132.55 213.12 491.48
132.98 213.12 491.40
133.42 213.12 491.40
133.86 213.12 491.68
134.29 213.12 491.68
134.73 213.12 491.52
135.16 213.12 491.44
135.60 213.12 491.60
136.03 213.12 491.60
136.47 213.12 491.04
136.91 213.12 491.04
137.34 213.12 491.04
93.34 213.44 487.12
93.78 213.44 487.36
94.21 213.44 488.28
94.65 213.44 488.52
95.08 213.44 488.96
95.52 213.44 489.60
95.96 213.44 489.60
96.39 213.44 489.96
96.83 213.44 490.04
97.26 213.44 490.04
97.70 213.44 489.96
98.13 213.44 490.12
98.57 213.44 490.12
99.01 213.44 489.96
99.44 213.44 489.96
99.88 213.44 490.08
100.31 213.44 490.08
100.75 213.44 490.08
101.18 213.44 490.08
101.62 213.44 489.80
102.05 213.44 489.92
102.49 213.44 490.08
102.93 213.44 490.24
103.36 213.44 490.24
103.80 213.44 490.08
104.23 213.44 490.16
104.67 213.44 490.16
105.10 213.44 490.16
105.54 213.44 490.20
105.98 213.44 490.20
106.41 213.44 490.20
106.85 213.44 490.20
107.28 213.44 490.44
107.72 213.44 490.44
108.15 213.44 490.44
108.59 213.44 490.36
109.02 213.44 490.44
109.46 213.44 490.44
109.90 213.44 490.40
110.33 213.44 490.56
110.77 213.44 490.64
111.20 213.44 490.72
111.64 213.44 490.72
112.07 213.44 490.72
112.51 213.44 490.72
112.95 213.44 490.72
113.38 213.44 490.64
113.82 213.44 490.64
114.25 213.44 490.64
114.69 213.44 490.68
115.12 213.44 490.68
115.56 213.44 490.68
116.00 213.44 490.76
116.43 213.44 490.84
116.87 213.44 490.84
117.30 213.44 490.92
117.74 213.44 491.04
118.17 213.44 491.04
118.61 213.44 490.88
119.04 213.44 490.88
119.48 213.44 491.04
119.92 213.44 491.04
120.35 213.44 491.16
120.79 213.44 491.16
121.22 213.44 491.16
121.66 213.44 491.16
122.09 213.44 491.24
122.53 213.44 491.40
122.97 213.44 491.40
123.40 213.44 491.16
123.84 213.44 491.08
124.27 213.44 491.08
124.71 213.44 491.16
125.14 213.44 491.16
125.58 213.44 491.00
126.01 213.44 491.08
126.45 213.44 491.20
126.89 213.44 491.28
127.32 213.44 491.28
127.76 213.44 491.36
128.19 213.44 491.36
128.63 213.44 491.28
129.06 213.44 491.32
129.50 213.44 491.32
129.94 213.44 491.48
130.37 213.44 491.48
130.81 213.44 491.40
131.24 213.44 491.40
131.68 213.44 491.32
132.11 213.44 491.32
132.55 213.44 491.40
132.98 213.44 491.68
133.42 213.44 491.68
133.86 213.44 491.68
134.29 213.44 491.68
134.73 213.44 491.60
135.16 213.44 491.52
135.60 213.44 491.20
136.03 213.44 491.20
136.47 213.44 490.88
136.91 213.44 490.72
137.34 213.44 490.72
93.34 213.76 487.04
93.78 213.76 487.28
94.21 213.76 487.68
94.65 213.76 488.84
95.08 213.76 488.84
95.52 213.76 488.96
95.96 213.76 489.28
96.39 213.76 489.68
96.83 213.76 489.96
97.26 213.76 489.96
97.70 213.76 490.12
98.13 213.76 490.12
98.57 213.76 490.12
99.01 213.76 490.04
99.44 213.76 490.04
99.88 213.76 489.96
100.31 213.76 489.88
100.75 213.76 489.84
101.18 213.76 490.08
101.62 213.76 490.08
102.05 213.76 489.92
102.49 213.76 490.24
102.93 213.76 490.24
103.36 213.76 490.08
103.80 213.76 490.16
104.23 213.76 490.16
104.67 213.76 490.16
105.10 213.76 490.16
105.54 213.76 490.16
105.98 213.76 490.36
106.41 213.76 490.36
106.85 213.76 490.44
107.28 213.76 490.44
107.72 213.76 490.44
108.15 213.76 490.52
108.59 213.76 490.52
109.02 213.76 490.44
109.46 213.76 490.52
109.90 213.76 490.52
110.33 213.76 490.48
110.77 213.76 490.48
111.20 213.76 490.56
111.64 213.76 490.64
112.07 213.76 490.64
112.51 213.76 490.72
112.95 213.76 490.72
113.38 213.76 490.72
113.82 213.76 490.80
114.25 213.76 490.80
114.69 213.76 490.68
115.12 213.76 490.68
115.56 213.76 490.68
116.00 213.76 490.84
116.43 213.76 490.84
116.87 213.76 490.92
117.30 213.76 490.92
117.74 213.76 491.04
118.17 213.76 491.04
118.61 213.76 490.96
119.04 213.76 491.04
119.48 213.76 491.04
119.92 213.76 491.12
120.35 213.76 491.20
120.79 213.76 491.20
121.22 213.76 491.08
121.66 213.76 491.16
122.09 213.76 491.16
122.53 213.76 491.16
122.97 213.76 491.16
123.40 213.76 491.24
123.84 213.76 491.24
124.27 213.76 491.16
124.71 213.76 491.16
125.14 213.76 491.00
125.58 213.76 491.24
126.01 213.76 491.24
126.45 213.76 491.20
126.89 213.76 491.20
127.32 213.76 491.68
127.76 213.76 491.68
128.19 213.76 491.36
128.63 213.76 491.36
129.06 213.76 491.20
129.50 213.76 491.28
129.94 213.76 491.28
130.37 213.76 491.32
130.81 213.76 491.32
131.24 213.76 491.32
131.68 213.76 491.32
132.11 213.76 491.32
132.55 213.76 491.40
132.98 213.76 491.40
133.42 213.76 491.44
133.86 213.76 491.44
134.29 213.76 491.52
134.73 213.76 491.60
135.16 213.76 491.60
135.60 213.76 491.60
136.03 213.76 491.20
136.47 213.76 491.12
136.91 213.76 491.12
137.34 213.76 490.96
93.34 214.08 487.12
93.78 214.08 487.44
94.21 214.08 487.76
94.65 214.08 488.44
95.08 214.08 488.80
95.52 214.08 489.28
95.96 214.08 489.52
96.39 214.08 489.72
96.83 214.08 489.72
97.26 214.08 489.96
