# .PCD v0.7 - Point Cloud Data file format
VERSION 0.7
FIELDS x y z
SIZE 4 4 4
TYPE F F F
COUNT 1 1 1
WIDTH 2356
HEIGHT 1
VIEWPOINT 0 0 0 1 0 0 0
POINTS 2356
DATA ascii
90.24 337.04 282.88
91.28 337.04 282.88
-64.04 338.08 279.96
-63.00 338.08 280.36
-61.97 338.08 280.52
-60.93 338.08 280.52
-59.90 338.08 280.52
-58.86 338.08 280.48
-57.82 338.08 280.48
-56.79 338.08 280.56
-55.75 338.08 280.72
-54.72 338.08 280.72
-53.68 338.08 280.72
-52.65 338.08 280.64
-51.61 338.08 280.72
-50.58 338.08 281.00
-49.54 338.08 281.00
-48.51 338.08 281.04
-47.47 338.08 281.04
-46.44 338.08 281.04
-45.40 338.08 281.00
-44.36 338.08 281.00
-43.33 338.08 281.00
-42.29 338.08 280.88
-41.26 338.08 281.08
-40.22 338.08 281.12
-39.19 338.08 281.16
-38.15 338.08 281.16
-37.12 338.08 281.20
-36.08 338.08 281.20
-35.05 338.08 281.24
-34.01 338.08 281.24
-32.97 338.08 281.24
-31.94 338.08 281.32
-30.90 338.08 281.32
-29.87 338.08 281.32
-28.83 338.08 281.24
-27.80 338.08 281.40
-26.76 338.08 281.40
-25.73 338.08 281.40
-24.69 338.08 281.16
-23.66 338.08 281.48
-22.62 338.08 281.48
-21.59 338.08 281.48
-20.55 338.08 281.36
-19.51 338.08 281.44
-18.48 338.08 281.44
-17.44 338.08 281.72
-16.41 338.08 281.72
-15.37 338.08 281.72
-14.34 338.08 281.72
-13.30 338.08 281.72
-12.27 338.08 281.52
-11.23 338.08 281.80
-10.20 338.08 281.84
-9.16 338.08 281.84
-8.12 338.08 281.84
-7.09 338.08 281.88
-6.05 338.08 281.88
-5.02 338.08 282.00
-3.98 338.08 282.00
-2.95 338.08 282.00
-1.91 338.08 281.76
-0.88 338.08 281.80
0.16 338.08 281.96
1.19 338.08 281.96
2.23 338.08 282.12
3.26 338.08 282.12
4.30 338.08 282.12
5.34 338.08 281.88
6.37 338.08 281.88
7.41 338.08 281.88
8.44 338.08 281.92
9.48 338.08 282.04
10.51 338.08 282.04
11.55 338.08 282.04
12.58 338.08 281.80
13.62 338.08 281.96
14.65 338.08 282.08
15.69 338.08 282.08
16.73 338.08 282.08
17.76 338.08 282.08
18.80 338.08 282.12
19.83 338.08 282.12
20.87 338.08 282.12
21.90 338.08 282.00
22.94 338.08 282.12
23.97 338.08 282.24
25.01 338.08 282.24
26.04 338.08 282.24
27.08 338.08 282.24
28.11 338.08 282.24
29.15 338.08 282.28
30.19 338.08 282.28
31.22 338.08 282.28
32.26 338.08 282.04
33.29 338.08 282.16
34.33 338.08 282.16
35.36 338.08 282.16
36.40 338.08 282.16
37.43 338.08 282.52
38.47 338.08 282.52
39.50 338.08 282.52
40.54 338.08 282.52
41.58 338.08 282.52
42.61 338.08 282.52
43.65 338.08 282.52
44.68 338.08 282.52
45.72 338.08 282.52
46.75 338.08 282.64
47.79 338.08 282.64
48.82 338.08 282.64
49.86 338.08 282.64
50.89 338.08 282.64
51.93 338.08 282.64
52.96 338.08 282.64
54.00 338.08 282.36
55.04 338.08 282.60
56.07 338.08 282.72
57.11 338.08 282.72
58.14 338.08 282.72
59.18 338.08 283.08
60.21 338.08 283.08
61.25 338.08 283.08
62.28 338.08 282.72
63.32 338.08 282.44
64.35 338.08 282.44
65.39 338.08 282.64
66.43 338.08 282.76
67.46 338.08 282.92
68.50 338.08 282.92
69.53 338.08 282.92
70.57 338.08 282.76
71.60 338.08 282.84
72.64 338.08 283.08
73.67 338.08 283.08
74.71 338.08 283.08
75.74 338.08 282.92
76.78 338.08 282.92
77.81 338.08 282.92
78.85 338.08 283.40
79.89 338.08 283.40
80.92 338.08 283.40
81.96 338.08 282.76
82.99 338.08 282.76
84.03 338.08 282.72
85.06 338.08 282.72
86.10 338.08 282.68
87.13 338.08 282.80
88.17 338.08 282.80
89.20 338.08 282.88
90.24 338.08 282.88
91.28 338.08 282.88
-65.07 339.13 279.80
-64.04 339.13 280.20
-63.00 339.13 280.52
-61.97 339.13 280.52
-60.93 339.13 280.56
-59.90 339.13 280.72
-58.86 339.13 280.72
-57.82 339.13 280.72
-56.79 339.13 280.68
-55.75 339.13 280.84
-54.72 339.13 280.84
-53.68 339.13 280.84
-52.65 339.13 280.76
-51.61 339.13 280.76
-50.58 339.13 281.00
-49.54 339.13 281.00
-48.51 339.13 281.04
-47.47 339.13 281.04
-46.44 339.13 281.04
-45.40 339.13 281.12
-44.36 339.13 281.12
-43.33 339.13 281.12
-42.29 339.13 281.12
-41.26 339.13 281.08
-40.22 339.13 281.08
-39.19 339.13 281.08
-38.15 339.13 281.16
-37.12 339.13 281.16
-36.08 339.13 281.24
-35.05 339.13 281.36
-34.01 339.13 281.36
-32.97 339.13 281.36
-31.94 339.13 281.16
-30.90 339.13 281.16
-29.87 339.13 281.16
-28.83 339.13 281.08
-27.80 339.13 281.12
-26.76 339.13 281.16
-25.73 339.13 281.16
-24.69 339.13 281.16
-23.66 339.13 280.96
-22.62 339.13 281.24
-21.59 339.13 281.52
-20.55 339.13 281.64
-19.51 339.13 281.64
-18.48 339.13 281.64
-17.44 339.13 281.44
-16.41 339.13 281.44
-15.37 339.13 281.60
-14.34 339.13 281.76
-13.30 339.13 281.76
-12.27 339.13 281.76
-11.23 339.13 281.80
-10.20 339.13 281.80
-9.16 339.13 281.80
-8.12 339.13 281.44
-7.09 339.13 281.60
-6.05 339.13 281.88
-5.02 339.13 281.88
-3.98 339.13 281.88
-2.95 339.13 281.88
-1.91 339.13 281.40
-0.88 339.13 281.80
0.16 339.13 282.08
1.19 339.13 282.08
2.23 339.13 282.08
3.26 339.13 282.00
4.30 339.13 282.00
5.34 339.13 282.00
6.37 339.13 281.88
7.41 339.13 281.88
8.44 339.13 282.04
9.48 339.13 282.04
10.51 339.13 282.04
11.55 339.13 282.04
12.58 339.13 282.04
13.62 339.13 282.04
14.65 339.13 281.96
15.69 339.13 281.96
16.73 339.13 282.08
17.76 339.13 282.12
18.80 339.13 282.12
19.83 339.13 282.12
20.87 339.13 282.00
21.90 339.13 282.12
22.94 339.13 282.12
23.97 339.13 282.12
25.01 339.13 282.12
26.04 339.13 282.12
27.08 339.13 282.16
28.11 339.13 282.16
29.15 339.13 282.28
30.19 339.13 282.28
31.22 339.13 282.40
32.26 339.13 282.40
33.29 339.13 282.40
34.33 339.13 282.28
35.36 339.13 282.40
36.40 339.13 282.52
37.43 339.13 282.64
38.47 339.13 282.64
39.50 339.13 282.64
40.54 339.13 282.28
41.58 339.13 282.28
42.61 339.13 282.64
43.65 339.13 282.64
44.68 339.13 282.64
45.72 339.13 282.64
46.75 339.13 282.40
47.79 339.13 282.24
48.82 339.13 282.64
49.86 339.13 282.88
50.89 339.13 282.88
51.93 339.13 282.88
52.96 339.13 282.76
54.00 339.13 282.76
55.04 339.13 282.84
56.07 339.13 282.84
57.11 339.13 282.84
58.14 339.13 282.60
59.18 339.13 282.48
60.21 339.13 282.44
61.25 339.13 282.56
62.28 339.13 282.56
63.32 339.13 282.56
64.35 339.13 282.56
65.39 339.13 282.56
66.43 339.13 282.64
67.46 339.13 282.64
68.50 339.13 282.64
69.53 339.13 282.88
70.57 339.13 282.88
71.60 339.13 282.88
72.64 339.13 282.88
73.67 339.13 282.72
74.71 339.13 282.72
75.74 339.13 282.80
76.78 339.13 282.92
77.81 339.13 282.92
78.85 339.13 282.92
79.89 339.13 282.76
80.92 339.13 282.76
81.96 339.13 282.76
82.99 339.13 282.72
84.03 339.13 282.72
85.06 339.13 282.68
86.10 339.13 282.68
87.13 339.13 283.04
88.17 339.13 283.04
89.20 339.13 283.04
90.24 339.13 282.64
91.28 339.13 282.64
-65.07 340.18 276.32
-64.04 340.18 280.08
-63.00 340.18 280.52
-61.97 340.18 280.68
-60.93 340.18 280.68
-59.90 340.18 280.72
-58.86 340.18 280.72
-57.82 340.18 280.72
-56.79 340.18 280.80
-55.75 340.18 280.84
-54.72 340.18 280.84
-53.68 340.18 280.84
-52.65 340.18 280.72
-51.61 340.18 280.72
-50.58 340.18 280.72
-49.54 340.18 280.72
-48.51 340.18 281.04
-47.47 340.18 281.04
-46.44 340.18 281.04
-45.40 340.18 280.84
-44.36 340.18 280.84
-43.33 340.18 280.92
-42.29 340.18 280.96
-41.26 340.18 280.96
-40.22 340.18 281.24
-39.19 340.18 281.24
-38.15 340.18 281.28
-37.12 340.18 281.28
-36.08 340.18 281.28
-35.05 340.18 281.24
-34.01 340.18 281.24
-32.97 340.18 281.28
-31.94 340.18 281.28
-30.90 340.18 281.28
-29.87 340.18 281.36
-28.83 340.18 281.36
-27.80 340.18 281.36
-26.76 340.18 281.36
-25.73 340.18 281.28
-24.69 340.18 281.44
-23.66 340.18 281.48
-22.62 340.18 281.48
-21.59 340.18 281.48
-20.55 340.18 281.48
-19.51 340.18 281.28
-18.48 340.18 281.44
-17.44 340.18 281.44
-16.41 340.18 281.44
-15.37 340.18 281.64
-14.34 340.18 281.64
-13.30 340.18 281.64
-12.27 340.18 281.64
-11.23 340.18 281.64
-10.20 340.18 281.56
-9.16 340.18 281.72
-8.12 340.18 281.72
-7.09 340.18 281.72
-6.05 340.18 281.60
-5.02 340.18 281.60
-3.98 340.18 281.64
-2.95 340.18 281.92
-1.91 340.18 281.92
-0.88 340.18 281.92
0.16 340.18 281.92
1.19 340.18 281.68
2.23 340.18 281.60
3.26 340.18 281.72
4.30 340.18 281.76
5.34 340.18 281.88
6.37 340.18 281.88
7.41 340.18 281.88
8.44 340.18 281.88
9.48 340.18 281.88
10.51 340.18 281.80
11.55 340.18 281.92
12.58 340.18 281.92
13.62 340.18 281.92
14.65 340.18 281.92
15.69 340.18 281.96
16.73 340.18 282.08
17.76 340.18 282.08
18.80 340.18 282.08
19.83 340.18 281.96
20.87 340.18 282.00
21.90 340.18 282.00
22.94 340.18 282.00
23.97 340.18 281.88
25.01 340.18 281.88
26.04 340.18 282.12
27.08 340.18 282.28
28.11 340.18 282.28
29.15 340.18 282.28
30.19 340.18 282.28
31.22 340.18 282.28
32.26 340.18 282.28
33.29 340.18 282.28
34.33 340.18 282.28
35.36 340.18 282.28
36.40 340.18 282.28
37.43 340.18 282.28
38.47 340.18 282.40
39.50 340.18 282.40
40.54 340.18 282.40
41.58 340.18 282.28
42.61 340.18 282.52
43.65 340.18 282.52
44.68 340.18 282.64
45.72 340.18 282.64
46.75 340.18 282.64
47.79 340.18 282.64
48.82 340.18 282.64
49.86 340.18 282.52
50.89 340.18 282.52
51.93 340.18 282.36
52.96 340.18 282.48
54.00 340.18 282.48
55.04 340.18 282.72
56.07 340.18 282.84
57.11 340.18 282.84
58.14 340.18 282.84
59.18 340.18 282.84
60.21 340.18 282.72
61.25 340.18 282.72
62.28 340.18 282.72
63.32 340.18 282.56
64.35 340.18 282.56
65.39 340.18 282.68
66.43 340.18 282.76
67.46 340.18 282.76
68.50 340.18 282.88
69.53 340.18 282.88
70.57 340.18 283.00
71.60 340.18 283.00
72.64 340.18 283.00
73.67 340.18 282.84
74.71 340.18 282.84
75.74 340.18 282.80
76.78 340.18 282.80
77.81 340.18 283.04
78.85 340.18 283.04
79.89 340.18 283.04
80.92 340.18 282.84
81.96 340.18 282.84
82.99 340.18 282.84
84.03 340.18 282.96
85.06 340.18 282.96
86.10 340.18 283.32
87.13 340.18 283.32
88.17 340.18 283.32
89.20 340.18 282.76
90.24 340.18 282.64
91.28 340.18 282.36
-64.04 341.22 280.36
-63.00 341.22 280.64
-61.97 341.22 280.68
-60.93 341.22 280.68
-59.90 341.22 280.68
-58.86 341.22 280.76
-57.82 341.22 280.76
-56.79 341.22 280.76
-55.75 341.22 280.84
-54.72 341.22 280.88
-53.68 341.22 280.88
-52.65 341.22 280.88
-51.61 341.22 280.84
-50.58 341.22 280.84
-49.54 341.22 280.88
-48.51 341.22 280.88
-47.47 341.22 280.88
-46.44 341.22 280.84
-45.40 341.22 281.00
-44.36 341.22 281.16
-43.33 341.22 281.28
-42.29 341.22 281.28
-41.26 341.22 281.28
-40.22 341.22 281.24
-39.19 341.22 281.24
-38.15 341.22 281.16
-37.12 341.22 281.16
-36.08 341.22 281.16
-35.05 341.22 281.04
-34.01 341.22 280.84
-32.97 341.22 280.84
-31.94 341.22 281.32
-30.90 341.22 281.32
-29.87 341.22 281.32
-28.83 341.22 281.24
-27.80 341.22 281.24
-26.76 341.22 281.24
-25.73 341.22 281.44
-24.69 341.22 281.60
-23.66 341.22 281.60
-22.62 341.22 281.60
-21.59 341.22 281.52
-20.55 341.22 281.52
-19.51 341.22 281.52
-18.48 341.22 281.56
-17.44 341.22 281.60
-16.41 341.22 281.60
-15.37 341.22 281.60
-14.34 341.22 281.20
-13.30 341.22 281.40
-12.27 341.22 281.40
-11.23 341.22 281.56
-10.20 341.22 281.56
-9.16 341.22 281.56
-8.12 341.22 281.48
-7.09 341.22 281.72
-6.05 341.22 281.72
-5.02 341.22 281.88
-3.98 341.22 281.92
-2.95 341.22 281.92
-1.91 341.22 281.92
-0.88 341.22 281.80
0.16 341.22 281.68
1.19 341.22 281.68
2.23 341.22 281.56
3.26 341.22 281.72
4.30 341.22 281.88
5.34 341.22 281.88
6.37 341.22 281.88
7.41 341.22 281.76
8.44 341.22 281.92
9.48 341.22 281.92
10.51 341.22 281.92
11.55 341.22 281.80
12.58 341.22 281.96
13.62 341.22 281.96
14.65 341.22 281.96
15.69 341.22 281.96
16.73 341.22 281.96
17.76 341.22 281.96
18.80 341.22 282.08
19.83 341.22 282.12
20.87 341.22 282.12
21.90 341.22 282.12
22.94 341.22 282.00
23.97 341.22 282.00
25.01 341.22 282.24
26.04 341.22 282.24
27.08 341.22 282.24
28.11 341.22 282.16
29.15 341.22 282.16
30.19 341.22 282.12
31.22 341.22 282.16
32.26 341.22 282.16
33.29 341.22 282.16
34.33 341.22 282.28
35.36 341.22 282.28
36.40 341.22 282.28
37.43 341.22 282.28
38.47 341.22 282.52
39.50 341.22 282.52
40.54 341.22 282.52
41.58 341.22 282.40
42.61 341.22 282.40
43.65 341.22 282.40
44.68 341.22 282.52
45.72 341.22 282.52
46.75 341.22 282.52
47.79 341.22 282.64
48.82 341.22 282.64
49.86 341.22 282.64
50.89 341.22 282.24
51.93 341.22 282.64
52.96 341.22 282.64
54.00 341.22 282.64
55.04 341.22 282.60
56.07 341.22 282.60
57.11 341.22 282.60
58.14 341.22 282.60
59.18 341.22 282.60
60.21 341.22 282.56
61.25 341.22 282.68
62.28 341.22 282.68
63.32 341.22 282.68
64.35 341.22 283.04
65.39 341.22 283.04
66.43 341.22 283.04
67.46 341.22 282.92
68.50 341.22 282.88
69.53 341.22 282.88
70.57 341.22 282.60
71.60 341.22 283.00
72.64 341.22 283.00
73.67 341.22 283.00
74.71 341.22 282.96
75.74 341.22 282.80
76.78 341.22 282.80
77.81 341.22 282.88
78.85 341.22 283.04
79.89 341.22 283.04
80.92 341.22 283.12
81.96 341.22 283.12
82.99 341.22 283.12
84.03 341.22 282.84
85.06 341.22 282.92
86.10 341.22 282.92
87.13 341.22 282.92
88.17 341.22 282.92
89.20 341.22 283.12
90.24 341.22 283.12
91.28 341.22 283.12
-65.07 342.27 277.88
-64.04 342.27 280.20
-63.00 342.27 280.24
-61.97 342.27 280.24
-60.93 342.27 280.44
-59.90 342.27 280.48
-58.86 342.27 280.76
-57.82 342.27 280.76
-56.79 342.27 280.76
-55.75 342.27 280.72
-54.72 342.27 280.88
-53.68 342.27 280.92
-52.65 342.27 280.92
-51.61 342.27 280.92
-50.58 342.27 280.68
-49.54 342.27 280.88
-48.51 342.27 281.16
-47.47 342.27 281.16
-46.44 342.27 281.16
-45.40 342.27 280.80
-44.36 342.27 281.12
-43.33 342.27 281.12
-42.29 342.27 281.12
-41.26 342.27 280.96
-40.22 342.27 281.12
-39.19 342.27 281.16
-38.15 342.27 281.16
-37.12 342.27 281.16
-36.08 342.27 280.92
-35.05 342.27 281.00
-34.01 342.27 281.12
-32.97 342.27 281.12
-31.94 342.27 281.12
-30.90 342.27 281.44
-29.87 342.27 281.44
-28.83 342.27 281.48
-27.80 342.27 281.48
-26.76 342.27 281.56
-25.73 342.27 281.56
-24.69 342.27 281.56
-23.66 342.27 281.56
-22.62 342.27 281.56
-21.59 342.27 281.52
-20.55 342.27 281.52
-19.51 342.27 281.56
-18.48 342.27 281.56
-17.44 342.27 281.56
-16.41 342.27 281.44
-15.37 342.27 281.60
-14.34 342.27 281.60
-13.30 342.27 281.60
-12.27 342.27 281.40
-11.23 342.27 281.44
-10.20 342.27 281.44
-9.16 342.27 281.44
-8.12 342.27 281.48
-7.09 342.27 281.48
-6.05 342.27 281.48
-5.02 342.27 281.64
-3.98 342.27 281.76
-2.95 342.27 281.80
-1.91 342.27 281.80
-0.88 342.27 281.96
0.16 342.27 281.96
1.19 342.27 281.96
2.23 342.27 281.68
3.26 342.27 281.60
4.30 342.27 281.88
5.34 342.27 282.00
6.37 342.27 282.00
7.41 342.27 282.00
8.44 342.27 281.88
9.48 342.27 282.04
10.51 342.27 282.04
11.55 342.27 282.04
12.58 342.27 281.92
13.62 342.27 281.96
14.65 342.27 282.08
15.69 342.27 282.08
16.73 342.27 282.08
17.76 342.27 282.08
18.80 342.27 282.08
19.83 342.27 282.08
20.87 342.27 282.12
21.90 342.27 282.12
22.94 342.27 282.12
23.97 342.27 282.12
25.01 342.27 282.24
26.04 342.27 282.24
27.08 342.27 282.28
28.11 342.27 282.28
29.15 342.27 282.40
30.19 342.27 282.40
31.22 342.27 282.40
32.26 342.27 282.28
33.29 342.27 282.28
34.33 342.27 282.28
35.36 342.27 282.28
36.40 342.27 282.28
37.43 342.27 282.40
38.47 342.27 282.40
39.50 342.27 282.40
40.54 342.27 282.28
41.58 342.27 282.52
42.61 342.27 282.52
43.65 342.27 282.52
44.68 342.27 282.52
45.72 342.27 282.88
46.75 342.27 282.88
47.79 342.27 282.88
48.82 342.27 282.24
49.86 342.27 282.24
50.89 342.27 282.36
51.93 342.27 282.36
52.96 342.27 282.72
54.00 342.27 282.72
55.04 342.27 282.72
56.07 342.27 283.00
57.11 342.27 283.00
58.14 342.27 283.00
59.18 342.27 282.96
60.21 342.27 282.60
61.25 342.27 282.56
62.28 342.27 282.56
63.32 342.27 282.56
64.35 342.27 282.68
65.39 342.27 282.68
66.43 342.27 282.76
67.46 342.27 282.76
68.50 342.27 282.76
69.53 342.27 282.76
70.57 342.27 282.88
71.60 342.27 282.88
72.64 342.27 282.88
73.67 342.27 282.84
74.71 342.27 282.84
75.74 342.27 282.84
76.78 342.27 282.84
77.81 342.27 282.80
78.85 342.27 282.76
79.89 342.27 282.76
80.92 342.27 282.88
81.96 342.27 282.88
82.99 342.27 282.88
84.03 342.27 282.84
85.06 342.27 283.32
86.10 342.27 283.32
87.13 342.27 283.32
88.17 342.27 282.76
89.20 342.27 282.76
90.24 342.27 282.76
91.28 342.27 282.36
-64.04 343.32 279.20
-63.00 343.32 280.24
-61.97 343.32 280.52
-60.93 343.32 280.68
-59.90 343.32 280.68
-58.86 343.32 280.68
-57.82 343.32 280.60
-56.79 343.32 280.68
-55.75 343.32 280.84
-54.72 343.32 280.88
-53.68 343.32 280.88
-52.65 343.32 280.88
-51.61 343.32 280.76
-50.58 343.32 280.84
-49.54 343.32 280.88
-48.51 343.32 280.88
-47.47 343.32 280.88
-46.44 343.32 280.84
-45.40 343.32 281.12
-44.36 343.32 281.12
-43.33 343.32 281.12
-42.29 343.32 281.12
-41.26 343.32 281.24
-40.22 343.32 281.24
-39.19 343.32 281.24
-38.15 343.32 281.12
-37.12 343.32 281.00
-36.08 343.32 280.92
-35.05 343.32 280.88
-34.01 343.32 281.00
-32.97 343.32 281.04
-31.94 343.32 281.16
-30.90 343.32 281.16
-29.87 343.32 281.20
-28.83 343.32 281.20
-27.80 343.32 281.20
-26.76 343.32 281.12
-25.73 343.32 281.16
-24.69 343.32 281.44
-23.66 343.32 281.48
-22.62 343.32 281.48
-21.59 343.32 281.52
-20.55 343.32 281.52
-19.51 343.32 281.52
-18.48 343.32 281.44
-17.44 343.32 281.72
-16.41 343.32 281.72
-15.37 343.32 281.72
-14.34 343.32 281.60
-13.30 343.32 281.60
-12.27 343.32 281.68
-11.23 343.32 281.68
-10.20 343.32 281.84
-9.16 343.32 281.84
-8.12 343.32 281.84
-7.09 343.32 281.20
-6.05 343.32 281.60
-5.02 343.32 281.76
-3.98 343.32 281.76
-2.95 343.32 281.76
-1.91 343.32 281.64
-0.88 343.32 281.64
0.16 343.32 281.68
1.19 343.32 281.68
2.23 343.32 281.68
3.26 343.32 281.72
4.30 343.32 281.88
5.34 343.32 282.00
6.37 343.32 282.00
7.41 343.32 282.00
8.44 343.32 281.76
9.48 343.32 281.64
10.51 343.32 281.80
11.55 343.32 281.80
12.58 343.32 282.20
13.62 343.32 282.20
14.65 343.32 282.20
15.69 343.32 282.20
16.73 343.32 281.96
17.76 343.32 281.84
18.80 343.32 281.84
19.83 343.32 281.84
20.87 343.32 282.00
21.90 343.32 282.24
22.94 343.32 282.24
23.97 343.32 282.24
25.01 343.32 282.24
26.04 343.32 282.24
27.08 343.32 282.40
28.11 343.32 282.40
29.15 343.32 282.40
30.19 343.32 282.28
31.22 343.32 282.28
32.26 343.32 282.40
33.29 343.32 282.40
34.33 343.32 282.40
35.36 343.32 282.40
36.40 343.32 282.28
37.43 343.32 282.16
38.47 343.32 282.52
39.50 343.32 282.52
40.54 343.32 282.52
41.58 343.32 282.28
42.61 343.32 282.52
43.65 343.32 282.52
44.68 343.32 282.52
45.72 343.32 282.52
46.75 343.32 282.52
47.79 343.32 282.52
48.82 343.32 282.52
49.86 343.32 282.36
50.89 343.32 282.64
51.93 343.32 283.00
52.96 343.32 283.00
54.00 343.32 283.00
55.04 343.32 282.76
56.07 343.32 282.72
57.11 343.32 282.72
58.14 343.32 282.72
59.18 343.32 282.72
60.21 343.32 282.72
61.25 343.32 282.56
62.28 343.32 282.68
63.32 343.32 282.68
64.35 343.32 282.80
65.39 343.32 282.92
66.43 343.32 282.92
67.46 343.32 282.92
68.50 343.32 282.76
69.53 343.32 282.64
70.57 343.32 282.60
71.60 343.32 282.72
72.64 343.32 282.84
73.67 343.32 282.84
74.71 343.32 282.84
75.74 343.32 282.80
76.78 343.32 283.20
77.81 343.32 283.20
78.85 343.32 283.20
79.89 343.32 282.76
80.92 343.32 282.76
81.96 343.32 283.00
82.99 343.32 283.00
84.03 343.32 283.00
85.06 343.32 282.92
86.10 343.32 282.92
87.13 343.32 282.92
88.17 343.32 282.68
89.20 343.32 282.76
90.24 343.32 282.76
91.28 343.32 282.76
-65.07 344.36 277.24
-64.04 344.36 279.44
-63.00 344.36 280.24
-61.97 344.36 280.52
-60.93 344.36 280.56
-59.90 344.36 280.60
-58.86 344.36 280.64
-57.82 344.36 280.64
-56.79 344.36 280.80
-55.75 344.36 280.80
-54.72 344.36 280.80
-53.68 344.36 280.92
-52.65 344.36 280.92
-51.61 344.36 280.92
-50.58 344.36 281.00
-49.54 344.36 281.00
-48.51 344.36 281.00
-47.47 344.36 281.08
-46.44 344.36 281.08
-45.40 344.36 281.08
-44.36 344.36 281.04
-43.33 344.36 281.04
-42.29 344.36 281.04
-41.26 344.36 280.96
-40.22 344.36 280.96
-39.19 344.36 281.16
-38.15 344.36 281.16
-37.12 344.36 281.32
-36.08 344.36 281.32
-35.05 344.36 281.32
-34.01 344.36 281.12
-32.97 344.36 281.12
-31.94 344.36 280.92
-30.90 344.36 281.32
-29.87 344.36 281.32
-28.83 344.36 281.32
-27.80 344.36 281.24
-26.76 344.36 281.52
-25.73 344.36 281.52
-24.69 344.36 281.52
-23.66 344.36 281.44
-22.62 344.36 281.60
-21.59 344.36 281.60
-20.55 344.36 281.60
-19.51 344.36 281.52
-18.48 344.36 281.56
-17.44 344.36 281.60
-16.41 344.36 281.60
-15.37 344.36 281.60
-14.34 344.36 281.64
-13.30 344.36 281.64
-12.27 344.36 281.64
-11.23 344.36 281.64
-10.20 344.36 281.64
-9.16 344.36 281.56
-8.12 344.36 281.60
-7.09 344.36 281.60
-6.05 344.36 281.60
-5.02 344.36 281.88
-3.98 344.36 281.88
-2.95 344.36 281.88
-1.91 344.36 281.64
-0.88 344.36 281.64
0.16 344.36 281.56
1.19 344.36 281.60
2.23 344.36 281.60
3.26 344.36 282.00
4.30 344.36 282.00
5.34 344.36 282.00
6.37 344.36 281.88
7.41 344.36 281.88
8.44 344.36 282.04
9.48 344.36 282.04
10.51 344.36 282.04
11.55 344.36 282.04
12.58 344.36 282.04
13.62 344.36 281.92
14.65 344.36 281.84
15.69 344.36 282.08
16.73 344.36 282.08
17.76 344.36 282.08
18.80 344.36 281.96
19.83 344.36 282.12
20.87 344.36 282.12
21.90 344.36 282.12
22.94 344.36 282.12
23.97 344.36 282.24
25.01 344.36 282.24
26.04 344.36 282.24
27.08 344.36 282.12
28.11 344.36 282.12
29.15 344.36 282.12
30.19 344.36 282.12
31.22 344.36 282.16
32.26 344.36 282.40
33.29 344.36 282.40
34.33 344.36 282.40
35.36 344.36 282.40
36.40 344.36 282.40
37.43 344.36 282.40
38.47 344.36 282.40
39.50 344.36 282.52
40.54 344.36 282.52
41.58 344.36 282.52
42.61 344.36 282.40
43.65 344.36 282.64
44.68 344.36 282.64
45.72 344.36 282.64
46.75 344.36 282.40
47.79 344.36 282.52
48.82 344.36 282.52
49.86 344.36 282.64
50.89 344.36 282.64
51.93 344.36 282.76
52.96 344.36 282.76
54.00 344.36 282.76
55.04 344.36 282.84
56.07 344.36 282.84
57.11 344.36 282.84
58.14 344.36 282.72
59.18 344.36 282.72
60.21 344.36 282.72
61.25 344.36 282.72
62.28 344.36 282.44
63.32 344.36 282.68
64.35 344.36 282.68
65.39 344.36 282.68
66.43 344.36 282.76
67.46 344.36 282.76
68.50 344.36 282.76
69.53 344.36 282.88
70.57 344.36 282.88
71.60 344.36 282.88
72.64 344.36 282.84
73.67 344.36 282.84
74.71 344.36 282.84
75.74 344.36 282.80
76.78 344.36 282.80
77.81 344.36 282.80
78.85 344.36 282.88
79.89 344.36 282.88
80.92 344.36 282.88
81.96 344.36 282.96
82.99 344.36 282.96
84.03 344.36 282.96
85.06 344.36 283.08
86.10 344.36 283.08
87.13 344.36 283.08
88.17 344.36 283.16
89.20 344.36 283.16
90.24 344.36 283.16
91.28 344.36 282.76
-64.04 345.41 279.32
-63.00 345.41 280.12
-61.97 345.41 280.52
-60.93 345.41 280.52
-59.90 345.41 280.52
-58.86 345.41 280.60
-57.82 345.41 280.60
-56.79 345.41 280.68
-55.75 345.41 280.84
-54.72 345.41 280.84
-53.68 345.41 280.84
-52.65 345.41 280.92
-51.61 345.41 280.92
-50.58 345.41 281.00
-49.54 345.41 281.00
-48.51 345.41 281.00
-47.47 345.41 280.96
-46.44 345.41 280.96
-45.40 345.41 281.00
-44.36 345.41 281.00
-43.33 345.41 281.16
-42.29 345.41 281.20
-41.26 345.41 281.20
-40.22 345.41 281.20
-39.19 345.41 281.16
-38.15 345.41 281.16
-37.12 345.41 281.16
-36.08 345.41 281.04
-35.05 345.41 281.12
-34.01 345.41 281.12
-32.97 345.41 281.12
-31.94 345.41 281.32
-30.90 345.41 281.32
-29.87 345.41 281.32
-28.83 345.41 281.32
-27.80 345.41 281.20
-26.76 345.41 281.28
-25.73 345.41 281.28
-24.69 345.41 281.28
-23.66 345.41 281.36
-22.62 345.41 281.36
-21.59 345.41 281.36
-20.55 345.41 281.12
-19.51 345.41 281.28
-18.48 345.41 281.56
-17.44 345.41 281.56
-16.41 345.41 281.56
-15.37 345.41 281.36
-14.34 345.41 281.36
-13.30 345.41 281.52
-12.27 345.41 281.68
-11.23 345.41 281.68
-10.20 345.41 281.68
-9.16 345.41 281.44
-8.12 345.41 281.72
-7.09 345.41 281.72
-6.05 345.41 281.72
-5.02 345.41 281.72
-3.98 345.41 281.52
-2.95 345.41 281.52
-1.91 345.41 281.52
-0.88 345.41 281.56
0.16 345.41 281.56
1.19 345.41 281.56
2.23 345.41 281.84
3.26 345.41 282.00
4.30 345.41 282.00
5.34 345.41 282.00
6.37 345.41 282.00
7.41 345.41 281.76
8.44 345.41 281.92
9.48 345.41 281.92
10.51 345.41 282.32
11.55 345.41 282.32
12.58 345.41 282.32
13.62 345.41 281.80
14.65 345.41 281.80
15.69 345.41 281.84
16.73 345.41 282.20
17.76 345.41 282.20
18.80 345.41 282.20
19.83 345.41 281.96
20.87 345.41 281.96
21.90 345.41 281.96
22.94 345.41 282.00
23.97 345.41 282.00
25.01 345.41 282.12
26.04 345.41 282.12
27.08 345.41 282.16
28.11 345.41 282.16
29.15 345.41 282.16
30.19 345.41 282.12
31.22 345.41 282.00
32.26 345.41 282.16
33.29 345.41 282.28
34.33 345.41 282.28
35.36 345.41 282.28
36.40 345.41 282.16
37.43 345.41 282.28
38.47 345.41 282.28
39.50 345.41 282.40
40.54 345.41 282.40
41.58 345.41 282.40
42.61 345.41 282.28
43.65 345.41 282.28
44.68 345.41 282.40
45.72 345.41 282.40
46.75 345.41 282.40
47.79 345.41 282.40
48.82 345.41 282.40
49.86 345.41 282.40
50.89 345.41 282.36
51.93 345.41 282.64
52.96 345.41 283.00
54.00 345.41 283.00
55.04 345.41 283.00
56.07 345.41 282.84
57.11 345.41 282.84
58.14 345.41 282.84
59.18 345.41 282.84
60.21 345.41 282.84
61.25 345.41 282.84
62.28 345.41 282.68
63.32 345.41 282.68
64.35 345.41 282.56
65.39 345.41 282.68
66.43 345.41 282.68
67.46 345.41 282.88
68.50 345.41 282.88
69.53 345.41 282.88
70.57 345.41 282.88
71.60 345.41 282.88
72.64 345.41 282.88
73.67 345.41 282.72
74.71 345.41 282.72
75.74 345.41 282.68
76.78 345.41 282.80
77.81 345.41 282.80
78.85 345.41 283.04
79.89 345.41 283.04
80.92 345.41 283.04
81.96 345.41 282.88
82.99 345.41 283.08
84.03 345.41 283.08
85.06 345.41 283.08
86.10 345.41 283.56
87.13 345.41 283.56
88.17 345.41 283.56
89.20 345.41 283.16
90.24 345.41 283.16
91.28 345.41 282.64
-64.04 346.46 279.72
-63.00 346.46 280.24
-61.97 346.46 280.28
-60.93 346.46 280.32
-59.90 346.46 280.60
-58.86 346.46 280.64
-57.82 346.46 280.76
-56.79 346.46 280.76
-55.75 346.46 280.76
-54.72 346.46 280.68
-53.68 346.46 280.64
-52.65 346.46 280.68
-51.61 346.46 280.68
-50.58 346.46 281.00
-49.54 346.46 281.00
-48.51 346.46 281.00
-47.47 346.46 280.68
-46.44 346.46 280.72
-45.40 346.46 280.72
-44.36 346.46 280.72
-43.33 346.46 280.72
-42.29 346.46 280.68
-41.26 346.46 280.84
-40.22 346.46 280.84
-39.19 346.46 280.84
-38.15 346.46 280.64
-37.12 346.46 281.08
-36.08 346.46 281.08
-35.05 346.46 281.36
-34.01 346.46 281.36
-32.97 346.46 281.36
-31.94 346.46 281.16
-30.90 346.46 281.16
-29.87 346.46 281.20
-28.83 346.46 281.24
-27.80 346.46 281.24
-26.76 346.46 281.52
-25.73 346.46 281.52
-24.69 346.46 281.52
-23.66 346.46 281.08
-22.62 346.46 281.48
-21.59 346.46 281.48
-20.55 346.46 281.48
-19.51 346.46 281.40
-18.48 346.46 281.68
-17.44 346.46 281.68
-16.41 346.46 281.68
-15.37 346.46 281.60
-14.34 346.46 281.52
-13.30 346.46 281.64
-12.27 346.46 281.80
-11.23 346.46 281.80
-10.20 346.46 281.80
-9.16 346.46 281.56
-8.12 346.46 281.60
-7.09 346.46 281.60
-6.05 346.46 281.60
-5.02 346.46 281.60
-3.98 346.46 281.60
-2.95 346.46 281.80
-1.91 346.46 281.80
-0.88 346.46 281.96
0.16 346.46 281.96
1.19 346.46 281.96
2.23 346.46 281.84
3.26 346.46 281.72
4.30 346.46 281.72
5.34 346.46 282.00
6.37 346.46 282.00
7.41 346.46 282.00
8.44 346.46 281.88
9.48 346.46 281.92
10.51 346.46 281.92
11.55 346.46 281.92
12.58 346.46 282.08
13.62 346.46 282.08
14.65 346.46 282.08
15.69 346.46 281.96
16.73 346.46 281.96
17.76 346.46 282.12
18.80 346.46 282.12
19.83 346.46 282.12
20.87 346.46 281.96
21.90 346.46 281.96
22.94 346.46 282.00
23.97 346.46 282.12
25.01 346.46 282.12
26.04 346.46 282.40
27.08 346.46 282.40
28.11 346.46 282.40
29.15 346.46 282.40
30.19 346.46 282.28
31.22 346.46 282.28
32.26 346.46 282.28
33.29 346.46 282.28
34.33 346.46 282.28
35.36 346.46 282.28
36.40 346.46 282.28
37.43 346.46 282.28
38.47 346.46 282.28
39.50 346.46 282.28
40.54 346.46 282.28
41.58 346.46 282.28
42.61 346.46 282.40
43.65 346.46 282.64
44.68 346.46 282.64
45.72 346.46 282.64
46.75 346.46 282.52
47.79 346.46 282.52
48.82 346.46 282.52
49.86 346.46 282.52
50.89 346.46 282.64
51.93 346.46 282.64
52.96 346.46 282.64
54.00 346.46 283.00
55.04 346.46 283.00
56.07 346.46 283.00
57.11 346.46 282.72
58.14 346.46 282.72
59.18 346.46 282.72
60.21 346.46 282.72
61.25 346.46 282.72
62.28 346.46 282.60
63.32 346.46 282.56
64.35 346.46 282.68
65.39 346.46 282.68
66.43 346.46 282.68
67.46 346.46 282.68
68.50 346.46 282.64
69.53 346.46 282.64
70.57 346.46 282.64
71.60 346.46 282.60
72.64 346.46 282.84
73.67 346.46 282.84
74.71 346.46 282.84
75.74 346.46 282.80
76.78 346.46 283.32
77.81 346.46 283.32
78.85 346.46 283.32
79.89 346.46 283.04
80.92 346.46 282.88
81.96 346.46 282.96
82.99 346.46 282.96
84.03 346.46 282.96
85.06 346.46 282.96
86.10 346.46 282.96
87.13 346.46 282.96
88.17 346.46 282.88
89.20 346.46 282.88
90.24 346.46 282.88
91.28 346.46 282.64
92.31 346.46 282.48
-64.04 347.50 279.72
-63.00 347.50 280.36
-61.97 347.50 280.52
-60.93 347.50 280.68
-59.90 347.50 280.68
-58.86 347.50 280.76
-57.82 347.50 280.76
-56.79 347.50 280.80
-55.75 347.50 280.84
-54.72 347.50 280.84
-53.68 347.50 280.84
-52.65 347.50 280.76
-51.61 347.50 280.84
-50.58 347.50 280.88
-49.54 347.50 280.88
-48.51 347.50 281.04
-47.47 347.50 281.04
-46.44 347.50 281.04
-45.40 347.50 280.80
-44.36 347.50 280.72
-43.33 347.50 280.72
-42.29 347.50 280.92
-41.26 347.50 280.92
-40.22 347.50 281.00
-39.19 347.50 281.00
-38.15 347.50 281.00
-37.12 347.50 280.92
-36.08 347.50 280.96
-35.05 347.50 281.24
-34.01 347.50 281.24
-32.97 347.50 281.24
-31.94 347.50 281.16
-30.90 347.50 281.32
-29.87 347.50 281.32
-28.83 347.50 281.32
-27.80 347.50 281.12
-26.76 347.50 281.28
-25.73 347.50 281.32
-24.69 347.50 281.32
-23.66 347.50 281.48
-22.62 347.50 281.48
-21.59 347.50 281.48
-20.55 347.50 281.52
-19.51 347.50 281.52
-18.48 347.50 281.52
-17.44 347.50 281.44
-16.41 347.50 281.44
-15.37 347.50 281.24
-14.34 347.50 281.64
-13.30 347.50 281.64
-12.27 347.50 281.64
-11.23 347.50 281.64
-10.20 347.50 281.52
-9.16 347.50 281.56
-8.12 347.50 281.56
-7.09 347.50 281.56
-6.05 347.50 281.48
-5.02 347.50 281.48
-3.98 347.50 281.52
-2.95 347.50 281.80
-1.91 347.50 281.80
-0.88 347.50 281.80
0.16 347.50 281.56
1.19 347.50 281.56
2.23 347.50 281.60
3.26 347.50 281.88
4.30 347.50 282.00
5.34 347.50 282.00
6.37 347.50 282.00
7.41 347.50 281.88
8.44 347.50 281.88
9.48 347.50 281.92
10.51 347.50 281.92
11.55 347.50 281.92
12.58 347.50 282.08
13.62 347.50 282.08
14.65 347.50 282.08
15.69 347.50 282.08
16.73 347.50 282.08
17.76 347.50 281.96
18.80 347.50 281.96
19.83 347.50 281.96
20.87 347.50 281.84
21.90 347.50 281.84
22.94 347.50 282.00
23.97 347.50 282.12
25.01 347.50 282.40
26.04 347.50 282.40
27.08 347.50 282.40
28.11 347.50 282.12
29.15 347.50 282.12
30.19 347.50 282.00
31.22 347.50 282.16
32.26 347.50 282.16
33.29 347.50 282.16
34.33 347.50 282.16
35.36 347.50 282.28
36.40 347.50 282.28
37.43 347.50 282.28
38.47 347.50 282.16
39.50 347.50 282.28
40.54 347.50 282.28
41.58 347.50 282.28
42.61 347.50 282.28
43.65 347.50 282.16
44.68 347.50 282.52
45.72 347.50 282.52
46.75 347.50 282.52
47.79 347.50 282.52
48.82 347.50 282.52
49.86 347.50 282.52
50.89 347.50 282.36
51.93 347.50 282.64
52.96 347.50 282.64
54.00 347.50 282.64
55.04 347.50 282.72
56.07 347.50 283.00
57.11 347.50 283.00
58.14 347.50 283.00
59.18 347.50 282.84
60.21 347.50 282.84
61.25 347.50 282.84
62.28 347.50 282.84
63.32 347.50 282.56
64.35 347.50 282.56
65.39 347.50 282.80
66.43 347.50 282.80
67.46 347.50 282.88
68.50 347.50 282.88
69.53 347.50 282.88
70.57 347.50 282.76
71.60 347.50 282.76
72.64 347.50 282.72
73.67 347.50 282.60
74.71 347.50 282.60
75.74 347.50 282.56
76.78 347.50 282.80
77.81 347.50 282.92
78.85 347.50 282.92
79.89 347.50 283.00
80.92 347.50 283.00
81.96 347.50 283.00
82.99 347.50 283.00
84.03 347.50 283.60
85.06 347.50 283.60
86.10 347.50 283.60
87.13 347.50 283.04
88.17 347.50 283.04
89.20 347.50 283.04
90.24 347.50 282.76
91.28 347.50 282.64
-64.04 348.55 278.04
-63.00 348.55 280.52
-61.97 348.55 280.80
-60.93 348.55 280.80
-59.90 348.55 280.80
-58.86 348.55 281.00
-57.82 348.55 281.00
-56.79 348.55 281.00
-55.75 348.55 280.76
-54.72 348.55 280.88
-53.68 348.55 280.88
-52.65 348.55 280.88
-51.61 348.55 280.68
-50.58 348.55 280.68
-49.54 348.55 280.88
-48.51 348.55 280.92
-47.47 348.55 280.96
-46.44 348.55 281.20
-45.40 348.55 281.20
-44.36 348.55 281.20
-43.33 348.55 281.28
-42.29 348.55 281.28
-41.26 348.55 281.28
-40.22 348.55 281.08
-39.19 348.55 281.00
-38.15 348.55 281.00
-37.12 348.55 281.20
-36.08 348.55 281.20
-35.05 348.55 281.36
-34.01 348.55 281.36
-32.97 348.55 281.36
-31.94 348.55 281.12
-30.90 348.55 281.04
-29.87 348.55 281.08
-28.83 348.55 281.12
-27.80 348.55 281.28
-26.76 348.55 281.28
-25.73 348.55 281.44
-24.69 348.55 281.44
-23.66 348.55 281.48
-22.62 348.55 281.48
-21.59 348.55 281.48
-20.55 348.55 281.52
-19.51 348.55 281.52
-18.48 348.55 281.52
-17.44 348.55 281.28
-16.41 348.55 281.20
-15.37 348.55 281.60
-14.34 348.55 281.60
-13.30 348.55 281.88
-12.27 348.55 281.88
-11.23 348.55 281.88
-10.20 348.55 281.80
-9.16 348.55 281.80
-8.12 348.55 281.72
-7.09 348.55 281.72
-6.05 348.55 281.72
-5.02 348.55 281.64
-3.98 348.55 281.64
-2.95 348.55 281.64
-1.91 348.55 281.80
-0.88 348.55 281.80
0.16 348.55 281.80
1.19 348.55 281.84
2.23 348.55 281.84
3.26 348.55 281.84
4.30 348.55 281.84
5.34 348.55 281.64
6.37 348.55 281.76
7.41 348.55 281.76
8.44 348.55 281.92
9.48 348.55 281.92
10.51 348.55 282.04
11.55 348.55 282.04
12.58 348.55 282.04
13.62 348.55 282.08
14.65 348.55 282.08
15.69 348.55 282.08
16.73 348.55 281.96
17.76 348.55 282.12
18.80 348.55 282.36
19.83 348.55 282.36
20.87 348.55 282.36
21.90 348.55 282.12
22.94 348.55 282.12
23.97 348.55 282.12
25.01 348.55 282.12
26.04 348.55 282.12
27.08 348.55 282.12
28.11 348.55 282.12
29.15 348.55 282.28
30.19 348.55 282.40
31.22 348.55 282.52
32.26 348.55 282.52
33.29 348.55 282.52
34.33 348.55 282.28
35.36 348.55 282.28
36.40 348.55 282.28
37.43 348.55 282.28
38.47 348.55 282.28
39.50 348.55 282.40
40.54 348.55 282.40
41.58 348.55 282.40
42.61 348.55 282.28
43.65 348.55 282.16
44.68 348.55 282.64
45.72 348.55 282.64
46.75 348.55 282.64
47.79 348.55 282.64
48.82 348.55 282.52
49.86 348.55 282.36
50.89 348.55 282.36
51.93 348.55 282.52
52.96 348.55 282.60
54.00 348.55 282.60
55.04 348.55 282.60
56.07 348.55 282.60
57.11 348.55 282.72
58.14 348.55 282.72
59.18 348.55 282.72
60.21 348.55 282.60
61.25 348.55 282.60
62.28 348.55 282.60
63.32 348.55 282.56
64.35 348.55 282.56
65.39 348.55 282.56
66.43 348.55 282.56
67.46 348.55 282.64
68.50 348.55 282.64
69.53 348.55 282.76
70.57 348.55 282.76
71.60 348.55 282.76
72.64 348.55 282.84
73.67 348.55 282.84
74.71 348.55 282.84
75.74 348.55 282.84
76.78 348.55 282.80
77.81 348.55 282.80
78.85 348.55 282.76
79.89 348.55 282.76
80.92 348.55 282.76
81.96 348.55 282.84
82.99 348.55 282.96
84.03 348.55 282.96
85.06 348.55 282.96
86.10 348.55 282.96
87.13 348.55 282.68
88.17 348.55 282.88
89.20 348.55 283.12
90.24 348.55 283.12
91.28 348.55 283.12
-65.07 349.60 277.64
-64.04 349.60 278.92
-63.00 349.60 280.00
-61.97 349.60 280.52
-60.93 349.60 280.68
-59.90 349.60 280.72
-58.86 349.60 280.72
-57.82 349.60 280.72
-56.79 349.60 280.68
-55.75 349.60 280.72
-54.72 349.60 280.72
-53.68 349.60 280.92
-52.65 349.60 280.92
-51.61 349.60 280.96
-50.58 349.60 280.96
-49.54 349.60 280.96
-48.51 349.60 280.80
-47.47 349.60 280.96
-46.44 349.60 280.96
-45.40 349.60 280.96
-44.36 349.60 280.76
-43.33 349.60 280.80
-42.29 349.60 280.80
-41.26 349.60 280.84
-40.22 349.60 280.84
-39.19 349.60 281.28
-38.15 349.60 281.28
-37.12 349.60 281.28
-36.08 349.60 281.20
-35.05 349.60 281.20
-34.01 349.60 281.12
-32.97 349.60 281.16
-31.94 349.60 281.16
-30.90 349.60 281.16
-29.87 349.60 281.08
-28.83 349.60 281.12
-27.80 349.60 281.12
-26.76 349.60 281.12
-25.73 349.60 280.92
-24.69 349.60 280.92
-23.66 349.60 281.48
-22.62 349.60 281.60
-21.59 349.60 281.60
-20.55 349.60 281.60
-19.51 349.60 281.36
-18.48 349.60 281.28
-17.44 349.60 281.28
-16.41 349.60 281.36
-15.37 349.60 281.36
-14.34 349.60 281.36
-13.30 349.60 281.64
-12.27 349.60 281.64
-11.23 349.60 281.64
-10.20 349.60 281.44
-9.16 349.60 281.44
-8.12 349.60 281.60
-7.09 349.60 281.60
-6.05 349.60 281.76
-5.02 349.60 281.76
-3.98 349.60 281.76
-2.95 349.60 281.76
-1.91 349.60 281.68
-0.88 349.60 281.80
0.16 349.60 281.80
1.19 349.60 281.96
2.23 349.60 281.96
3.26 349.60 281.96
4.30 349.60 281.84
5.34 349.60 281.88
6.37 349.60 281.88
7.41 349.60 282.04
8.44 349.60 282.04
9.48 349.60 282.04
10.51 349.60 281.80
11.55 349.60 282.04
12.58 349.60 282.04
13.62 349.60 282.08
14.65 349.60 282.08
15.69 349.60 282.08
16.73 349.60 281.96
17.76 349.60 281.60
18.80 349.60 282.08
19.83 349.60 282.08
20.87 349.60 282.12
21.90 349.60 282.12
22.94 349.60 282.12
23.97 349.60 282.36
25.01 349.60 282.36
26.04 349.60 282.36
27.08 349.60 282.12
28.11 349.60 282.12
29.15 349.60 282.40
30.19 349.60 282.40
31.22 349.60 282.40
32.26 349.60 282.28
33.29 349.60 282.16
34.33 349.60 282.40
35.36 349.60 282.40
36.40 349.60 282.40
37.43 349.60 282.28
38.47 349.60 282.28
39.50 349.60 282.28
40.54 349.60 282.28
41.58 349.60 282.28
42.61 349.60 282.40
43.65 349.60 282.40
44.68 349.60 282.40
45.72 349.60 282.28
46.75 349.60 282.28
47.79 349.60 282.64
48.82 349.60 282.64
49.86 349.60 282.64
50.89 349.60 282.64
51.93 349.60 282.64
52.96 349.60 282.64
54.00 349.60 282.60
55.04 349.60 282.84
56.07 349.60 282.84
57.11 349.60 282.84
58.14 349.60 282.72
59.18 349.60 282.60
60.21 349.60 282.60
61.25 349.60 282.56
62.28 349.60 282.68
63.32 349.60 282.68
64.35 349.60 282.68
65.39 349.60 282.68
66.43 349.60 282.68
67.46 349.60 282.92
68.50 349.60 282.92
69.53 349.60 282.92
70.57 349.60 282.52
71.60 349.60 282.84
72.64 349.60 282.84
73.67 349.60 282.84
74.71 349.60 282.84
75.74 349.60 282.92
76.78 349.60 282.92
77.81 349.60 282.92
78.85 349.60 282.88
79.89 349.60 282.88
80.92 349.60 282.76
81.96 349.60 282.76
82.99 349.60 282.76
84.03 349.60 282.80
85.06 349.60 283.08
86.10 349.60 283.32
87.13 349.60 283.32
88.17 349.60 283.32
89.20 349.60 282.88
90.24 349.60 282.88
91.28 349.60 282.48
92.31 349.60 282.24
-65.07 350.64 277.52
-64.04 350.64 278.56
-63.00 350.64 280.00
-61.97 350.64 280.40
-60.93 350.64 280.40
-59.90 350.64 280.60
-58.86 350.64 280.60
-57.82 350.64 280.80
-56.79 350.64 280.80
-55.75 350.64 280.80
-54.72 350.64 280.72
-53.68 350.64 280.92
-52.65 350.64 280.92
-51.61 350.64 280.92
-50.58 350.64 280.80
-49.54 350.64 281.04
-48.51 350.64 281.16
-47.47 350.64 281.20
-46.44 350.64 281.20
-45.40 350.64 281.20
-44.36 350.64 280.76
-43.33 350.64 280.92
-42.29 350.64 280.92
-41.26 350.64 281.08
-40.22 350.64 281.12
-39.19 350.64 281.12
-38.15 350.64 281.32
-37.12 350.64 281.32
-36.08 350.64 281.32
-35.05 350.64 280.96
-34.01 350.64 281.12
-32.97 350.64 281.40
-31.94 350.64 281.40
-30.90 350.64 281.40
-29.87 350.64 281.32
-28.83 350.64 281.08
-27.80 350.64 281.08
-26.76 350.64 281.00
-25.73 350.64 281.56
-24.69 350.64 281.56
-23.66 350.64 281.56
-22.62 350.64 281.48
-21.59 350.64 281.48
-20.55 350.64 281.64
-19.51 350.64 281.64
-18.48 350.64 281.64
-17.44 350.64 281.56
-16.41 350.64 281.60
-15.37 350.64 281.60
-14.34 350.64 281.60
-13.30 350.64 281.48
-12.27 350.64 281.52
-11.23 350.64 281.56
-10.20 350.64 281.56
-9.16 350.64 281.56
-8.12 350.64 281.48
-7.09 350.64 281.60
-6.05 350.64 281.60
-5.02 350.64 281.60
-3.98 350.64 281.60
-2.95 350.64 281.52
-1.91 350.64 281.56
-0.88 350.64 281.68
0.16 350.64 281.84
1.19 350.64 281.84
2.23 350.64 281.84
3.26 350.64 281.84
4.30 350.64 281.76
5.34 350.64 281.76
6.37 350.64 281.88
7.41 350.64 281.88
8.44 350.64 281.88
9.48 350.64 281.88
10.51 350.64 281.80
11.55 350.64 282.04
12.58 350.64 282.04
13.62 350.64 282.04
14.65 350.64 281.80
15.69 350.64 281.80
16.73 350.64 281.84
17.76 350.64 281.84
18.80 350.64 281.84
19.83 350.64 281.84
20.87 350.64 282.24
21.90 350.64 282.24
22.94 350.64 282.24
23.97 350.64 282.12
25.01 350.64 282.12
26.04 350.64 282.12
27.08 350.64 282.12
28.11 350.64 282.12
29.15 350.64 282.40
30.19 350.64 282.40
31.22 350.64 282.40
32.26 350.64 282.28
33.29 350.64 282.28
34.33 350.64 282.28
35.36 350.64 282.28
36.40 350.64 282.28
37.43 350.64 282.16
38.47 350.64 282.52
39.50 350.64 282.52
40.54 350.64 282.52
41.58 350.64 282.64
42.61 350.64 282.64
43.65 350.64 282.64
44.68 350.64 282.64
45.72 350.64 282.64
46.75 350.64 282.64
47.79 350.64 282.40
48.82 350.64 282.36
49.86 350.64 282.64
50.89 350.64 282.64
51.93 350.64 282.64
52.96 350.64 282.64
54.00 350.64 282.64
55.04 350.64 282.60
56.07 350.64 282.60
57.11 350.64 282.60
58.14 350.64 282.60
59.18 350.64 282.60
60.21 350.64 282.60
61.25 350.64 282.56
62.28 350.64 282.56
63.32 350.64 282.56
64.35 350.64 282.56
65.39 350.64 282.56
66.43 350.64 282.64
67.46 350.64 282.64
68.50 350.64 282.64
69.53 350.64 282.64
70.57 350.64 282.88
71.60 350.64 282.88
72.64 350.64 282.88
73.67 350.64 282.84
74.71 350.64 282.84
75.74 350.64 282.92
76.78 350.64 283.04
77.81 350.64 283.04
78.85 350.64 283.04
79.89 350.64 282.88
80.92 350.64 282.88
81.96 350.64 282.88
82.99 350.64 282.84
84.03 350.64 282.84
85.06 350.64 282.96
86.10 350.64 282.96
87.13 350.64 282.96
88.17 350.64 282.76
89.20 350.64 282.76
90.24 350.64 282.76
91.28 350.64 282.60
92.31 350.64 282.60
-65.07 351.69 277.36
-64.04 351.69 278.44
-63.00 351.69 280.12
-61.97 351.69 280.40
-60.93 351.69 280.68
-59.90 351.69 280.68
-58.86 351.69 280.68
-57.82 351.69 280.80
-56.79 351.69 280.80
-55.75 351.69 280.80
-54.72 351.69 280.80
-53.68 351.69 280.76
-52.65 351.69 280.76
-51.61 351.69 280.76
-50.58 351.69 280.60
-49.54 351.69 280.64
-48.51 351.69 280.92
-47.47 351.69 280.96
-46.44 351.69 281.08
-45.40 351.69 281.08
-44.36 351.69 281.08
-43.33 351.69 281.04
-42.29 351.69 281.04
-41.26 351.69 281.08
-40.22 351.69 281.08
-39.19 351.69 281.08
-38.15 351.69 281.28
-37.12 351.69 281.28
-36.08 351.69 281.28
-35.05 351.69 281.08
-34.01 351.69 281.00
-32.97 351.69 281.16
-31.94 351.69 281.16
-30.90 351.69 281.16
-29.87 351.69 281.36
-28.83 351.69 281.36
-27.80 351.69 281.36
-26.76 351.69 281.36
-25.73 351.69 281.16
-24.69 351.69 281.60
-23.66 351.69 281.60
-22.62 351.69 281.60
-21.59 351.69 281.24
-20.55 351.69 281.28
-19.51 351.69 281.40
-18.48 351.69 281.44
-17.44 351.69 281.44
-16.41 351.69 281.60
-15.37 351.69 281.60
-14.34 351.69 281.60
-13.30 351.69 281.52
-12.27 351.69 281.52
-11.23 351.69 281.52
-10.20 351.69 281.52
-9.16 351.69 281.44
-8.12 351.69 282.00
-7.09 351.69 282.00
-6.05 351.69 282.00
-5.02 351.69 281.64
-3.98 351.69 281.64
-2.95 351.69 281.64
-1.91 351.69 281.64
-0.88 351.69 281.80
0.16 351.69 281.84
1.19 351.69 281.84
2.23 351.69 281.84
3.26 351.69 281.72
4.30 351.69 281.88
5.34 351.69 281.88
6.37 351.69 281.88
7.41 351.69 281.76
8.44 351.69 281.92
9.48 351.69 282.04
10.51 351.69 282.04
11.55 351.69 282.04
12.58 351.69 281.92
13.62 351.69 281.92
14.65 351.69 281.92
15.69 351.69 281.84
16.73 351.69 281.84
17.76 351.69 281.84
18.80 351.69 281.96
19.83 351.69 281.96
20.87 351.69 282.00
21.90 351.69 282.00
22.94 351.69 282.00
23.97 351.69 282.00
25.01 351.69 282.00
26.04 351.69 282.00
27.08 351.69 282.16
28.11 351.69 282.16
29.15 351.69 282.16
30.19 351.69 282.16
31.22 351.69 282.40
32.26 351.69 282.40
33.29 351.69 282.40
34.33 351.69 282.40
35.36 351.69 282.40
36.40 351.69 282.40
37.43 351.69 282.40
38.47 351.69 282.40
39.50 351.69 282.52
40.54 351.69 282.64
41.58 351.69 282.64
42.61 351.69 282.64
43.65 351.69 282.64
44.68 351.69 282.64
45.72 351.69 282.52
46.75 351.69 282.40
47.79 351.69 282.52
48.82 351.69 282.52
49.86 351.69 282.52
50.89 351.69 282.52
51.93 351.69 282.60
52.96 351.69 282.72
54.00 351.69 282.72
55.04 351.69 282.84
56.07 351.69 282.84
57.11 351.69 282.84
58.14 351.69 282.84
59.18 351.69 282.72
60.21 351.69 282.72
61.25 351.69 282.44
62.28 351.69 282.44
63.32 351.69 282.56
64.35 351.69 282.68
65.39 351.69 282.68
66.43 351.69 282.68
67.46 351.69 282.92
68.50 351.69 282.92
69.53 351.69 282.92
70.57 351.69 282.88
71.60 351.69 282.88
72.64 351.69 282.60
73.67 351.69 282.60
74.71 351.69 282.80
75.74 351.69 282.92
76.78 351.69 282.92
77.81 351.69 282.92
78.85 351.69 282.88
79.89 351.69 282.88
80.92 351.69 282.88
81.96 351.69 283.36
82.99 351.69 283.36
84.03 351.69 283.36
85.06 351.69 282.96
86.10 351.69 282.96
87.13 351.69 282.84
88.17 351.69 283.28
89.20 351.69 283.28
90.24 351.69 283.28
91.28 351.69 283.28
-65.07 352.74 276.08
-64.04 352.74 277.76
-63.00 352.74 279.48
-61.97 352.74 280.40
-60.93 352.74 280.56
-59.90 352.74 280.56
-58.86 352.74 280.60
-57.82 352.74 280.60
-56.79 352.74 280.68
-55.75 352.74 280.96
-54.72 352.74 280.96
-53.68 352.74 280.96
-52.65 352.74 280.80
-51.61 352.74 280.84
-50.58 352.74 280.88
-49.54 352.74 280.88
-48.51 352.74 280.88
-47.47 352.74 281.08
-46.44 352.74 281.08
-45.40 352.74 281.08
-44.36 352.74 281.00
-43.33 352.74 281.16
-42.29 352.74 281.16
-41.26 352.74 281.16
-40.22 352.74 281.08
-39.19 352.74 281.00
-38.15 352.74 281.16
-37.12 352.74 281.16
-36.08 352.74 281.20
-35.05 352.74 281.24
-34.01 352.74 281.24
-32.97 352.74 281.24
-31.94 352.74 281.00
-30.90 352.74 280.88
-29.87 352.74 280.96
-28.83 352.74 281.00
-27.80 352.74 281.12
-26.76 352.74 281.12
-25.73 352.74 281.16
-24.69 352.74 281.56
-23.66 352.74 281.56
-22.62 352.74 281.56
-21.59 352.74 281.52
-20.55 352.74 281.52
-19.51 352.74 281.52
-18.48 352.74 281.44
-17.44 352.74 281.44
-16.41 352.74 281.48
-15.37 352.74 281.48
-14.34 352.74 281.76
-13.30 352.74 281.76
-12.27 352.74 281.76
-11.23 352.74 281.68
-10.20 352.74 281.68
-9.16 352.74 281.68
-8.12 352.74 281.68
-7.09 352.74 281.48
-6.05 352.74 281.60
-5.02 352.74 281.60
-3.98 352.74 281.60
-2.95 352.74 281.52
-1.91 352.74 281.68
-0.88 352.74 281.68
0.16 352.74 281.68
1.19 352.74 281.84
2.23 352.74 281.96
3.26 352.74 281.96
4.30 352.74 281.96
5.34 352.74 281.72
6.37 352.74 281.88
7.41 352.74 281.88
8.44 352.74 282.04
9.48 352.74 282.04
10.51 352.74 282.04
11.55 352.74 282.04
12.58 352.74 281.92
13.62 352.74 281.96
14.65 352.74 281.96
15.69 352.74 281.96
16.73 352.74 281.84
17.76 352.74 281.84
18.80 352.74 281.84
19.83 352.74 281.72
20.87 352.74 281.72
21.90 352.74 282.00
22.94 352.74 282.24
23.97 352.74 282.24
25.01 352.74 282.24
26.04 352.74 282.12
27.08 352.74 282.24
28.11 352.74 282.24
29.15 352.74 282.24
30.19 352.74 282.16
31.22 352.74 282.52
32.26 352.74 282.52
33.29 352.74 282.52
34.33 352.74 282.28
35.36 352.74 282.28
36.40 352.74 282.28
37.43 352.74 282.52
38.47 352.74 282.52
39.50 352.74 282.52
40.54 352.74 282.40
41.58 352.74 282.40
42.61 352.74 282.40
43.65 352.74 282.40
44.68 352.74 282.40
45.72 352.74 282.52
46.75 352.74 282.52
47.79 352.74 282.52
48.82 352.74 282.52
49.86 352.74 282.52
50.89 352.74 282.76
51.93 352.74 282.76
52.96 352.74 282.76
54.00 352.74 282.60
55.04 352.74 282.60
56.07 352.74 282.72
57.11 352.74 282.72
58.14 352.74 282.72
59.18 352.74 282.72
60.21 352.74 282.72
61.25 352.74 282.72
62.28 352.74 282.68
63.32 352.74 282.56
64.35 352.74 282.68
65.39 352.74 282.92
66.43 352.74 282.92
67.46 352.74 282.92
68.50 352.74 282.64
69.53 352.74 282.64
70.57 352.74 282.88
71.60 352.74 282.88
72.64 352.74 282.88
73.67 352.74 282.84
74.71 352.74 282.84
75.74 352.74 282.92
76.78 352.74 282.92
77.81 352.74 282.92
78.85 352.74 282.92
79.89 352.74 282.76
80.92 352.74 282.76
81.96 352.74 283.36
82.99 352.74 283.36
84.03 352.74 283.36
85.06 352.74 283.32
86.10 352.74 283.32
87.13 352.74 282.96
88.17 352.74 282.88
89.20 352.74 282.88
90.24 352.74 282.88
91.28 352.74 282.76
92.31 352.74 282.48
-64.04 353.78 278.56
-63.00 353.78 280.00
-61.97 353.78 280.68
-60.93 353.78 280.68
-59.90 353.78 280.68
-58.86 353.78 280.88
-57.82 353.78 280.88
-56.79 353.78 280.88
-55.75 353.78 280.76
-54.72 353.78 280.88
-53.68 353.78 280.88
-52.65 353.78 280.88
-51.61 353.78 280.56
-50.58 353.78 280.72
-49.54 353.78 280.72
-48.51 353.78 281.04
-47.47 353.78 281.08
-46.44 353.78 281.08
-45.40 353.78 281.08
-44.36 353.78 281.08
-43.33 353.78 281.00
-42.29 353.78 280.92
-41.26 353.78 280.92
-40.22 353.78 280.84
-39.19 353.78 281.00
-38.15 353.78 281.00
-37.12 353.78 281.00
-36.08 353.78 281.20
-35.05 353.78 281.20
-34.01 353.78 281.20
-32.97 353.78 281.00
-31.94 353.78 281.04
-30.90 353.78 281.32
-29.87 353.78 281.32
-28.83 353.78 281.32
-27.80 353.78 281.24
-26.76 353.78 281.28
-25.73 353.78 281.44
-24.69 353.78 281.44
-23.66 353.78 281.44
-22.62 353.78 281.44
-21.59 353.78 281.36
-20.55 353.78 281.36
-19.51 353.78 281.28
-18.48 353.78 281.32
-17.44 353.78 281.32
-16.41 353.78 281.32
-15.37 353.78 281.48
-14.34 353.78 281.48
-13.30 353.78 281.64
-12.27 353.78 281.64
-11.23 353.78 281.64
-10.20 353.78 281.56
-9.16 353.78 281.56
-8.12 353.78 281.72
-7.09 353.78 281.72
-6.05 353.78 281.72
-5.02 353.78 281.76
-3.98 353.78 281.76
-2.95 353.78 281.76
-1.91 353.78 281.68
-0.88 353.78 281.68
0.16 353.78 281.96
1.19 353.78 281.96
2.23 353.78 281.96
3.26 353.78 282.00
4.30 353.78 282.00
5.34 353.78 282.00
6.37 353.78 282.00
7.41 353.78 281.76
8.44 353.78 281.76
9.48 353.78 281.80
10.51 353.78 281.92
11.55 353.78 281.92
12.58 353.78 282.08
13.62 353.78 282.08
14.65 353.78 282.08
